-0.00228426518409573    -0.28030411341431   0.0301422035772158 0.281929364027417 1782111447.41614
0.0170724660542824 -0.248616373635764 0.0233770150086231 0.25029593518011 1782111447.443
  0.0770803293087768   -0.203496072053678 -0.00694943688854825 0.21771615277855 1782111447.46815
 0.088438252145396 -0.183084504441974 0.0198501676467781 0.20429216667533 1782111447.48297
0.0928181363929259 -0.174603146498638 0.0439915141313924 0.202575216959659 1782111447.50307
 0.0769385305752107 -0.0516325621157181  0.0652417118633059 0.113322283442228 1782111447.5163
 0.0906527391637353 -0.0352665719779215  0.0993448351461581 0.139036133746517 1782111447.54246
0.0793549420117694 -0.044856995936558  0.081920622881221 0.122557518575528 1782111447.56797
 0.0436870996643509 -0.0369229296213163  0.0615495093082844 0.0840250409401518 1782111447.58318
 0.0440641555939021 -0.0238207749231597  0.0361893688938095 0.0617960318068699 1782111447.60397
 0.0350111770935226  0.0206509379286982 -0.0328099789137046 0.0522373283689613 1782111447.6203
 0.0559683883621653  0.0321544307489125 -0.0768692563693721 0.100375547258409 1782111447.64225
 0.105294523757098 0.0490506614884359 -0.133193912364299 0.176730083507579 1782111447.66658
0.0834017483857778 0.0280028930195913 -0.166566404700728 0.18837298327042 1782111447.68305
0.0838405961346586 0.0198367803642143 -0.158336699995947 0.18025885271198 1782111447.70324
0.0883152254878942   0.06078643682946 -0.128749447256278 0.167543994593052 1782111447.7202
0.0965593145156958 0.0895346254725572 -0.146268572042487 0.19681119263294 1782111447.74073
0.0963669423794072 0.0694577430498441 -0.133718469244868 0.178861943046376 1782111447.7656
 0.0495386235536998  0.0379118450375891 -0.0656498176902003 0.0905609285536863 1782111447.78607
 0.0139119480096903  0.0280629848824246 -0.0169041553097547 0.0355924694938667 1782111447.80311
-0.0121225278021323  0.0411517340160128 -0.0644318595083866 0.0774072697654852 1782111447.81919
 -0.0768637988300791 -0.00981273824844568  -0.0898575407995327 0.118653744319609 1782111447.84081
-0.0917345359835229  0.0125485727283298  -0.153687672833627 0.179422943211414 1782111447.86852
-0.0326828400143945 -0.0329125358251216  -0.216225376987615 0.221144334540324 1782111447.88616
-0.0271571134087365  -0.032271312743003  -0.219419737028986 0.223436719078851 1782111447.90288
 0.0108079560376982 -0.0288573741148356  -0.221843007138852 0.223972944283289 1782111447.91934
 0.103326599181073 0.0134730402273636 -0.216893568592843 0.240625703132963 1782111447.94073
 0.153165147175815 0.0160964430525483 -0.202288652156117 0.254242711949569 1782111447.96479
  0.153965274287017 -0.0159824196087074 -0.0793954611726478 0.173966613686772 1782111447.98529
  0.137778891174177 -0.0487648592085916  0.0431714822501085 0.15239688719423 1782111448.0027
  0.165829585010263 -0.0483247411930597   0.173802040255075 0.245034448747271 1782111448.0205
  0.233157339893074 -0.0422513288699473   0.202258607857413 0.311538222999538 1782111448.04081
  0.292209430988675 -0.0748809446693962   0.232444459632291 0.380820081202468 1782111448.06862
  0.279777749911135 -0.0765535573201084   0.193454218191238 0.348655375721763 1782111448.08542
  0.254631647083642 -0.0603087130131668   0.184306147172589 0.320067449840556 1782111448.10565
 0.188251993629191 -0.011921970067268 0.0623183134541285 0.198656786109654 1782111448.12278
 0.0783770627699856 -0.0414033998164104 -0.0223240452995974 0.091408798719523 1782111448.14507
 0.0176574030357635 -0.0199999887593252  -0.069727021945902 0.0746568216694551 1782111448.16776
-0.0311144072021007 -0.0460843075202317 -0.0639638189543929 0.0847539961912579 1782111448.18666
-0.0997810933210113 -0.0629675499195829  0.0132566841103636 0.118730445130192 1782111448.20716
 -0.173057776678307 -0.0245670392058384   0.013772499113759 0.17533458077635 1782111448.2286
 -0.196172396227247   -0.01896335257573 0.00790148285261075 0.197245155108361 1782111448.24971
  -0.19063995098345 0.00263082237266396 -0.0517311082517868 0.197551562125655 1782111448.2678
 -0.140619045844289 -0.0542389591958681  -0.111972754144268 0.18775909676887 1782111448.28929
 -0.148899273559914 -0.0522408045488955   -0.10824300277095 0.191354756866554 1782111448.3111
 -0.134706471309289 -0.0155416371795559 -0.0934196599952666 0.164665141339788 1782111448.32864
 -0.0494245340737176 -0.00882325268538553  -0.0738406367590503 0.0892920712792364 1782111448.34947
-0.00522671202147138   0.0246512266139111   -0.069839143543135 0.074246262282787 1782111448.36782
 0.0309504855625443 -0.0194494553850054  -0.021471397059146 0.0423938057150108 1782111448.38929
 0.0242330860915604 -0.0163288462904614  0.0346129694305984 0.0452982487023729 1782111448.4109
-0.00605616069470453   0.0221383683783534 -0.00556612693441144 0.0236170744561163 1782111448.42773
 -0.0112946276811831 -0.00330450798196408 -0.00428054925764674 0.0125224394351321 1782111448.44903
-0.0262956218059471 -0.0243158145412642 -0.0207951472736585 0.0414144505348038 1782111448.46759
-0.0293944572378577 -0.0725032910730035  -0.116626378513402 0.140436724178102 1782111448.48904
-0.0228964080759199 -0.0830212002544332  -0.120965420439741 0.14849039745596 1782111448.51091
-0.106194850723915 -0.104636817075276 -0.164193638329189 0.221778629889573 1782111448.5278
-0.134032317626522 -0.144514955610059 -0.186439123642794 0.271309383155112 1782111448.54912
-0.161744381844268 -0.141345685019565 -0.161442099918347 0.268706902326456 1782111448.56734
-0.107344484115547  -0.17398232713789 -0.106226076157717 0.230383740056051 1782111448.58893
  -0.10745483051412  -0.188432436689218 -0.0209767306280132 0.217929683671809 1782111448.60979
 -0.0928935212822719   -0.181778820193277 -0.00913595497793413 0.204343366519294 1782111448.63093
-0.0423198902899108  -0.189325839003278  -0.020812733615732 0.195111292110438 1782111448.64886
-0.0271089333442679  -0.187915800979769 -0.0272673901570116 0.191809157995406 1782111448.6671
  0.0102490249393267   -0.140192464890079 -0.00920024963059849 0.140867364273732 1782111448.68809
-0.0316121547163956  -0.126386800698807   0.144165252458789 0.194310503404216 1782111448.70941
 -0.0553923450703078 -0.00857778177231023    0.178902988281308 0.18747845062434 1782111448.72719
-0.0386167283485132  0.0308981612746088   0.157552104266468 0.165132109649476 1782111448.7479
-0.0660367479386421  0.0263370476564634   0.153887336524971 0.169516384164836 1782111448.76592
-0.0499646892778433 -0.0598430755931873     0.0103198990866 0.0786394569426886 1782111448.78756
-0.0140864106674363  -0.103131648341321  0.0244983954057371 0.106933321432308 1782111448.80915
 -0.0547515969894377  -0.0971734638272984 -0.00958082463851674 0.111947361049035 1782111448.82952
 -0.128746686802744  -0.165424228650085 -0.0636454176287977 0.219069906587609 1782111448.84772
-0.170197849307751 -0.165158790157192 -0.075874627354995 0.249001391464848 1782111448.86559
 -0.18655356734736 -0.191518731547559 -0.143115111150639 0.303254996765547 1782111448.88702
 -0.180038569872767  -0.239514886848861 -0.0662188758539366 0.306865128653311 1782111448.90799
 -0.163020534781297  -0.209829584075375 -0.0544245025420218 0.271230852947395 1782111448.9263
-0.146981271597889 -0.127234975813466 -0.124515495185127 0.230860004790745 1782111448.94728
-0.079755888694362 -0.110326921091271 -0.142262612846614 0.196905262278215 1782111448.96542
-0.00782134506977879  -0.0533948854441948   -0.173270966550633 0.181480067995606 1782111448.98608
  0.010170967418496 -0.0972986686601236 -0.0930800022457136 0.135034685615669 1782111449.00742
0.0486983389755059 -0.068996549620068  0.010210768420564 0.0850665143883666 1782111449.02604
  0.162400095388773 0.00295257898227789  0.0461944290313198 0.168868096390227 1782111449.04644
 0.202901259393793 0.0169099603894866 0.0588857153790299 0.211949039393109 1782111449.06765
  0.227386385141716  0.0185973978099714 0.00897688884973347 0.228322175634649 1782111449.08587
   0.199390490706251 1.22697789741895e-05  0.00836524459753662 0.199565892005132 1782111449.10734
 0.159590247074472 0.0155195536769183 -0.011129677273332 0.16072888111298 1782111449.12546
 0.0468747952325911  -0.127130279271436 -0.0698469926072065 0.1524400102073 1782111449.1461
 0.0174258203808871  -0.147442058865761 -0.0746864836263391 0.166195339209584 1782111449.16761
0.00652868237509431   -0.23288330762917  -0.178742539993706 0.293642902637301 1782111449.1857
-0.0240928138477917  -0.295697358593734  -0.165577029969624 0.339754535528192 1782111449.20722
-0.0329121171443974  -0.325131283479804 -0.0975909141265505 0.341053581526726 1782111449.22848
-0.0106194850271432  -0.336272742959386 -0.0769464743154518 0.345127354797108 1782111449.246
 0.0332307914267168  -0.362089635111243 -0.0537874951077694 0.36756806714377 1782111449.26765
 0.0824363136359681  -0.367997277121255 -0.0693248867192932 0.383436672337412 1782111449.28564
0.0792495488164522 -0.391870237647608 0.0531852031609725 0.403325476478834 1782111449.30639
0.0961915779171588 -0.412432389167844  0.117681300841163 0.439547703741649 1782111449.32857
0.0750645876516592 -0.405909258337715 0.0765395894175662 0.419827734995911 1782111449.34962
0.0921432842490809  -0.37283422904213  0.049552960014232 0.387235384519311 1782111449.36768
 0.0830516832209304  -0.346543755948833 -0.0321405496552429 0.357803258516598 1782111449.38586
0.0679220603225663 -0.354006519331345  -0.10551060458572 0.375588218249189 1782111449.40657
 0.037850052256183 -0.368825219990555 -0.142528724667147 0.397214182415634 1782111449.42947
-0.0455175914563824  -0.369760001153753  -0.206415939848165 0.425912960367038 1782111449.44988
-0.0099451267969075  -0.388069489429151  -0.193308773782044 0.433664750923944 1782111449.46792
-0.00136539951320163   -0.363557570505859   -0.177893780244104 0.404749513202291 1782111449.48828
-0.0523439659531537  -0.368573753771689 -0.0808945652769537 0.380959884282329 1782111449.50648
-0.0601506911319564  -0.384638089856236 -0.0242008022045716 0.390064410885242 1782111449.53207
-0.0257854253540974  -0.377417447517516 -0.0754809938236642 0.38575406450216 1782111449.54993
 0.0683517762714172  -0.370842428493491 -0.0680558217063713 0.383180984599363 1782111449.56775
0.0933810818968961 -0.359218264036923 -0.118176134039869 0.389516862703714 1782111449.58809
0.0943923409558921 -0.373087151391191 -0.114571640404808 0.401535300253135 1782111449.60598
  0.107234160016098  -0.375114792616331 -0.0993973931464625 0.402604165997153 1782111449.63199
 0.104739490701848 -0.332411648055607  -0.14207352426837 0.376367839983124 1782111449.64976
 0.185269885327579 -0.272666418472753 -0.169589797055638 0.370719038407019 1782111449.66682
 0.209019341658043 -0.203433520141574 -0.146448569100015 0.32637626398958 1782111449.68791
  0.195393042463736  -0.195981135991855 -0.0123267322877047 0.277018040995142 1782111449.70589
 0.210435523833382 -0.201149596504681   0.08022212673167 0.301960029610506 1782111449.73081
 0.194998498314422 -0.156717346968063 0.0724590910500719 0.260451648221682 1782111449.74864
  0.251301175563729 -0.0920620121621477  0.0673000508188205 0.275965562640108 1782111449.76638
  0.240523871521598 -0.0689178921674235 0.00832232954606531 0.250341106895396 1782111449.78692
  0.163843046107146 -0.0810821077456806 -0.0518252811882459 0.190012398870156 1782111449.80487
  0.156822635057228 -0.0808084182172349 -0.0480056602761949 0.182832936692538 1782111449.8302
0.0122958949942275 -0.145928787400727 -0.156578957798534 0.214390694880237 1782111449.84824
-0.107448577888963 -0.235689900395873 -0.192187528351572 0.322538326548743 1782111449.86615
-0.127638670059239 -0.238745876917236  -0.20955789401743 0.342353231012198 1782111449.88637
-0.166758545576461 -0.271616484193972 -0.259322913148517 0.410892078644143 1782111449.90429
-0.171523205692186 -0.291891107228794 -0.216151669427312 0.401674212224769 1782111449.93012
-0.126059297015783 -0.346620488351155 -0.165191182035384 0.404134675487212 1782111449.94821
-0.0397335031565225  -0.399556621700518   -0.11263306426692 0.417025721489666 1782111449.96833
 0.0183292640351297   -0.39526285410081 -0.0764450987161786 0.403004390633296 1782111449.98606
0.0482881384912437 -0.427212928830771 0.0203276877951505 0.430413575262458 1782111450.00418
0.0240186289630313 -0.485747319051099  0.163114867978336 0.512965703198745 1782111450.0301
0.0175166189293273 -0.491722681155083  0.120493305857305 0.5065734535657 1782111450.04836
0.0560373655528502 -0.520987028808509  0.112798226783116 0.53599543887074 1782111450.06835
0.0772318933878297 -0.491887285797422 0.0700107511906341 0.502811468214181 1782111450.0862
  0.050462632779632  -0.487517835916641 -0.0171585523543562 0.490422811013919 1782111450.10335
0.0297513053789729 -0.545200646578081 0.0172823731668902 0.546285241996514 1782111450.12941
-0.0276880367076329   -0.53398158482212 -0.0352956195582415 0.535862613984094 1782111450.15049
-0.0563036722463096  -0.525727388299375 -0.0530146650231001 0.531384931122452 1782111450.16838
-0.0496538560800893  -0.449087386873449 -0.0772535311925564 0.458380949161463 1782111450.18512
-0.0383447306148922  -0.443002740963177 -0.0703793668111104 0.450194404829235 1782111450.20293
-0.0589146857861533  -0.471294655281251 0.00297887008769336 0.47497206861557 1782111450.22935
-0.0670247598050249  -0.456626350406912 -0.0128983275602596 0.461699370983662 1782111450.25053
-0.0292542895686732   -0.40940265228258 -0.0196782322932826 0.410917969892249 1782111450.26753
-0.0621899028080378  -0.341889449317448 -0.0588353329962327 0.352445138957312 1782111450.28517
-0.0230270985868072  -0.318075506563231 -0.0318338549863556 0.320492854004696 1782111450.30278
-0.0105785493462059  -0.317036959487594  0.0560852491802311 0.322133349038899 1782111450.32921
-0.0183923906805972   -0.30979243812822  0.0672227849614886 0.317535096602491 1782111450.35074
0.0713743226701226 -0.223323857255151  0.077571584112049 0.246951796546594 1782111450.36759
0.0780158445248009 -0.161066506507832   0.06250934238917 0.189568745845622 1782111450.385
 0.104711977595205 -0.151518781476626 0.0419431996946283 0.188896192107421 1782111450.40301
 0.108610025696124 -0.191105589849492 0.0750135775036202 0.232259598215718 1782111450.42874
0.0608929658772785 -0.177982727362893 0.0130096882756593 0.18856048504895 1782111450.45074
 0.0532904723143544  -0.213287841524894 -0.0168798698125587 0.220491514092321 1782111450.46767
 0.0354875681824379  -0.200658416850377 0.00430493077527009 0.203817811236857 1782111450.48766
  0.0189803772188013   -0.198008804431836 -0.00841229861444871 0.199094219202547 1782111450.50528
0.0365341681201081 -0.268392787469731 0.0192820697472146 0.27155336864001 1782111450.52872
  0.0224096767753693   -0.281174472227999 -0.00918993505373253 0.282215754968007 1782111450.55082
0.0645006572422055 -0.330917595479325 -0.048726396034198 0.340647987595665 1782111450.56767
 0.0646369003870507  -0.338907150649336 -0.0319100026677263 0.34648843259646 1782111450.58768
 0.0580570474962115    -0.2979291858964 -0.0241177121520536 0.304489876042404 1782111450.60492
0.0603746437432709  -0.32911710128798 0.0228491184597539 0.335388202210091 1782111450.62776
 0.0456871120770841  -0.316080421338916 0.00660737641732424 0.319433564903331 1782111450.65071
 0.0433635562005699  -0.219241901342641 -0.0345628189079354 0.226145965609734 1782111450.66721
 0.0223023251047087  -0.143700329515455 0.00743566610344533 0.145610671100467 1782111450.68712
  0.0578971674430225   -0.108290842365814 -0.00838348768192602 0.123082376496133 1782111450.70478
0.0150456454360242 -0.113415355151711 0.0350112107461426 0.119646141219373 1782111450.72694
-0.0133457731943101 -0.0963695097254075  0.0169301405599331 0.0987513125292442 1782111450.74971
0.00305661857810863 -0.0324322701241582 -0.0207262708454632 0.0386105343876241 1782111450.76703
-0.00720947103769045 -0.00249853955907007   0.0027199185567624 0.00810044008230145 1782111450.78698
 0.0082655080329798  0.0277762590812355 -0.0107198910239768 0.0308991141484203 1782111450.8039
0.00101805363977461  0.0179845315524159  0.0224169952694071 0.0287576335132417 1782111450.82606
 0.00384721871109456 -0.00455004318234791   0.0185697944690842 0.0195023396390345 1782111450.84915
-0.00299885478121829  -0.0163481027865935  -0.0130578913467203 0.0211367481212843 1782111450.86604
-0.0236850097254456 -0.0167653940147377  0.0167339064742485 0.0334974886827767 1782111450.88599
 -0.0247217452215029 -0.00698101263854218   0.0167782523631505 0.030682388704564 1782111450.90342
-0.0131109536528962 -0.0645099678925899  0.0281657863264956 0.0716012889729031 1782111450.92499
-0.00281204110563026   -0.126829063779943   0.0354140953380636 0.1317105809838 1782111450.94896
  0.0688277800213177   -0.207716223767338 -0.00344712029735472 0.218849664283887 1782111450.9675
0.0923566798593016 -0.186776547061586 0.0388633373696155 0.211956584796007 1782111450.9858
 0.128673128069802  -0.13967896500849 0.0283417080880216 0.192016248193889 1782111451.00347
 0.133050635382729 -0.174925450175711 0.0503177345897648 0.225462323036841 1782111451.02424
0.0982795599632213 -0.226556350447961 0.0491184127029989 0.251792117234289 1782111451.04828
 0.0569353568862851  -0.216535915812369 0.00231129841660109 0.223907971722404 1782111451.0676
0.0615094452073515 -0.192287241191091 0.0295554074868297 0.204037538424451 1782111451.08586
0.0616384970489976 -0.145695734418719   0.02329401888258 0.159903604280739 1782111451.10333
 0.0539088671198957  -0.145692296463609 0.00324174067660029 0.155379921758267 1782111451.12397
 0.0548023987205626  -0.191625820770498 -0.0140587630800433 0.199803420668505 1782111451.14877
 0.0112258102518151  -0.199190241945849 -0.0612975938866437 0.208710724014238 1782111451.16763
0.00349282061302646  -0.191883885812996 -0.0387913017894953 0.195796809282106 1782111451.18543
 0.0174009975180211  -0.154000249363736 -0.0756569741690133 0.172461152898633 1782111451.20335
-0.0226553798508685  -0.181904937264528 -0.0982424388303632 0.207976559315555 1782111451.22372
-0.0133224819916819  -0.238189801298082 -0.0975531670501499 0.2577372506456 1782111451.25098
0.00742894264432609  -0.237885440878834 -0.0707270354967695 0.248288110309558 1782111451.26758
  0.0493141370834293   -0.217047722942492 -0.00723945529334874 0.222697121363857 1782111451.28529
0.0582621425808345 -0.175753118334942 0.0219652400423782 0.186456717853461 1782111451.30305
 0.048828856674854 -0.193953494456683 0.0227679666018426 0.201297281549738 1782111451.32347
0.0432516296419802 -0.252820977066354 0.0405998359701492 0.259687305412251 1782111451.35002
0.00756917162274679  -0.273773453404972 -0.0124655870886497 0.274161607468667 1782111451.36761
  0.0532171164654668   -0.226220417142107 -0.00907402614635089 0.232572733929308 1782111451.38536
  0.0456828724817862   -0.141513061628824 -0.00943943210623565 0.149003269521976 1782111451.40319
 0.0422126141884628  -0.139872106287756 -0.0201722347237221 0.147489084232516 1782111451.42225
  0.0270522861178814   -0.192486971214061 -0.00678261153579661 0.194496951365855 1782111451.44972
  0.020093745268368   -0.21438382607015 -0.0674770211858399 0.225648691260332 1782111451.46756
  0.024416981147076  -0.193547537587706 -0.0354418375013763 0.198274965943951 1782111451.4851
  0.0360286203024113   -0.137534074803128 -0.00906657127532859 0.142463630192194 1782111451.50233
 0.032048454415816  -0.15405580699423 0.0151443768649562 0.158081141347455 1782111451.52194
0.00684855400727831  -0.201324891670437  0.0467421438977594 0.206793236626014 1782111451.54963
-0.0127554541058953  -0.207044153125445  0.0146667352305881 0.207954552908092 1782111451.56763
0.0324952139020534 -0.206381620857106 0.0018139768512685 0.208932053228229 1782111451.58422
  0.0638422041981132   -0.183500939214987 -0.00285080818006595 0.194310444487514 1782111451.60407
 0.0472025385550607  -0.190626201537248 -0.0355380564177997 0.199572998706028 1782111451.6216
 0.0105782576173061  -0.251396326780032 -0.0147257963393561 0.252049324003336 1782111451.64951
-0.0200914829571872  -0.253394749730059  -0.042808758685923 0.257769580630468 1782111451.66767
-0.0448982520018747  -0.210390430071874 -0.0236550913964839 0.216424465917391 1782111451.68412
-0.0268254689374486  -0.147307446048434 0.00579036842343424 0.14984197613321 1782111451.70395
-0.00966648344608918   -0.130830418107882   0.0151796592559374 0.132062338536099 1782111451.72167
-0.0070148831907263   -0.15265979009008  0.0385903488944203 0.157618003807687 1782111451.74939
-0.0266903466711446  -0.111699820365727 -0.0170565473399685 0.116104049379521 1782111451.76762
-0.0179862781992747 -0.0207983880688424 -0.0154301334984043 0.0315304324344347 1782111451.78591
 0.00307401356162575   0.0411321472394951 -0.00814865722321887 0.0420440686714557 1782111451.80403
 0.0149922900461429  0.0906162163507168 -0.0620070875124921 0.110819431185733 1782111451.8207
 0.0132993097894702   0.124002385721869 -0.0432769220169965 0.132008921232077 1782111451.84803
0.00885161598652079   0.142912091698208 -0.0445411007899343 0.149953748598389 1782111451.86664
 0.0324605933852455   0.183858622269941 -0.0405082926493889 0.19104608051277 1782111451.88576
 0.0437262201708749   0.192410683760027 0.00819519712659136 0.197486745913179 1782111451.90383
0.0515385598152762   0.18597623821382 0.0223679536549006 0.194277403932377 1782111451.92012
0.0279460533127464 0.0729435529555622 0.0508834987003313 0.0932248585599699 1782111451.94411
0.0247461170208091 0.0356153297059011 0.0140295162950068 0.0455812389601191 1782111451.96634
  0.065387045432203 -0.0082350682455182 -0.0105248387003415 0.0667387015833356 1782111451.98562
 0.0791664742162707 0.00449175902157482  0.0398478857551841 0.0887432281253142 1782111452.00281
0.0873620564725842 0.0204771691122643 0.0331203733620282 0.0956472817052916 1782111452.01991
 0.0816431987300596 -0.0152007562443237  0.0458018818784248 0.0948392707314883 1782111452.04387
0.00425271835128078 0.00115780031356442 -0.0207197129574382 0.0211833099391961 1782111452.06602
-0.0231754790967968 0.00978548663932603 -0.0796157530640968 0.0834956688463404 1782111452.08466
-0.0127620973281983  0.0421880679366973 -0.0202179748419728 0.0484919654288877 1782111452.10231
 0.0014820381136361  0.0702999267528186 -0.0502995900062743 0.0864541779974873 1782111452.11995
 -0.0250846709269446 0.000788033291630673   0.0166454855696044 0.0301153432958969 1782111452.14227
-0.0431027999774787    0.01040424787849 0.00971728292118942 0.0453930096731429 1782111452.16795
  0.023966562636439  0.0264650013527037 -0.0340547126538684 0.0493408134827802 1782111452.1845
 0.0577174352952304  0.0526757637353721 -0.0318226411663083 0.0843725009287 1782111452.20247
 0.0711177863280313  0.0606125179574059 -0.0897472475081867 0.129561511648453 1782111452.22004
 0.0477082897420252  -0.035759792419071 -0.0476548121337601 0.0763270907572668 1782111452.24217
 0.0740693680997753  -0.025496867205456 -0.0102358596087497 0.0790008503113904 1782111452.2681
 0.126814963937821 0.0077402701213591 0.0269393704543777 0.129875619500277 1782111452.2846
 0.149883814244641 0.0331637678330034 0.0912761438732877 0.178595430260073 1782111452.30288
 0.146081046850704 0.0659096492960625 0.0911386907808707 0.184363811732614 1782111452.32024
 0.129789626465962 0.0737222683146288 0.0474608268320288 0.156629658964093 1782111452.34486
 0.035383034628135  0.158556138613665 -0.193784443785616 0.252872337128583 1782111452.36829
-0.121540257809562  0.239485021500984 -0.363262151511981 0.45175712558061 1782111452.38479
-0.137370440136579  0.315824356381914 -0.302056991038413 0.458098338506643 1782111452.40293
-0.0861945600023342   0.319776093277074  -0.223009930767516 0.399273942583881 1782111452.42023
 -0.121790691547732   0.203082834899718 -0.0546813090595829 0.243034269063131 1782111452.44479
-0.0610924395078567   0.150448590213973   0.147119602144924 0.219114677275791 1782111452.46834
0.0729465351142183 0.0739825144003861  0.260814497461993 0.280746881565095 1782111452.48486
 0.145582131060211 0.0343042835684769  0.373793938840067 0.402607562607498 1782111452.5049
  0.10555964579021 0.0394317855255175  0.310444506529008 0.330262768357446 1782111452.52238
  0.053820954584633 -0.0619626379933132   0.212097469562024 0.227423394254208 1782111452.54455
 -0.101322419967203 -0.0723868041631212 -0.0726391938890869 0.144161488247786 1782111452.56838
 -0.380844607582044 -0.0687473445791011  -0.338393842482463 0.514080932481496 1782111452.58497
 -0.456670557914077 -0.0390916119578592  -0.429470196730228 0.628108909720694 1782111452.60489
-0.398062959474661 0.0153012330179889 -0.478071848341605 0.622286862800714 1782111452.62227
 -0.412058804205783 -0.0190212969875459  -0.369840490301057 0.554018281402983 1782111452.64449
 -0.276847439442213 0.00270493472416631  -0.167557933441439 0.323616258022889 1782111452.66841
0.0551475812458663 0.0323067990521008 0.0217308433968657 0.0675071443404426 1782111452.68683
 0.199395906330828 0.0866439267599224  0.244260456433391 0.327000104102307 1782111452.70478
 0.340833709607666 0.0832448375947555  0.452015526247221 0.572202199016792 1782111452.72236
  0.355903252644321 -0.0466878042114179   0.699735066387068 0.786432476082089 1782111452.74429
 0.386677603841635 -0.143148948707534  0.771412419418981 0.874693267187204 1782111452.76749
 0.352098239880919 -0.314313956639153  0.643548077629149 0.798073030546437 1782111452.78671
 0.409339780042529 -0.576232778612652  0.531526626912654 0.884377648852608 1782111452.80484
 0.439954631914528 -0.682606330558542  0.403810168177772 0.906958727057305 1782111452.82237
 0.419247846745681 -0.896755618558274  0.174869971720467 1.00524569306525 1782111452.84273
  0.212855041557018  -0.915729098731419 -0.0765214565563862 0.943251071715907 1782111452.86715
-0.171291106447651 -0.838100362771085 -0.209649109761121 0.880741511709716 1782111452.88668
-0.438927215214439 -0.704997281061971   -0.1650277463058 0.846706810892321 1782111452.9045
 -0.49683116758269 -0.591811014383714 -0.145221698170711 0.786238403696388 1782111452.92123
 -0.511046055949321  -0.594147493418181 -0.0409475104316529 0.784764941780031 1782111452.93889
-0.504018707377729 -0.550474909843888   0.17434964385246 0.76645631451886 1782111452.96675
 -0.23158759790828 -0.506715264480571  0.295475890907082 0.630633948396276 1782111452.98655
0.0357577529770219 -0.350890983348512  0.416013056149286 0.54540806922883 1782111453.00351
0.117721809427388 -0.22536983179873 0.444200853989304 0.511824563873866 1782111453.02098
  0.153073309252983 -0.0688637720518194   0.384784719857321 0.419801069248925 1782111453.03896
 0.198865281801682 0.0886241014310301  0.374919999114035 0.433551193512586 1782111453.06775
0.130263089348934 0.114717744829856 0.216999828235274 0.277880475887952 1782111453.08651
 0.160270365323472  0.174977679421654 0.0841110016303979 0.251750747549983 1782111453.1034
  0.174555761147132   0.214034409277178 -0.0225870581986663 0.27711120024704 1782111453.12112
 0.201824383943752  0.216188151539849 -0.134146046252052 0.324754615895679 1782111453.14109
 0.212523892961905  0.271373736534332 -0.182313988037908 0.38993396901857 1782111453.16779
 0.213995316182411  0.215226238150085 -0.175027943854968 0.350358545016879 1782111453.18575
 0.216245811220322   0.21247632536259 -0.116813424299944 0.324890467398788 1782111453.20362
 0.211380494274633  0.185093341040344 -0.134621248164547 0.31155118153306 1782111453.22133
 0.178870570813951  0.100198536943272 -0.151697282726414 0.255042140626718 1782111453.24146
 0.112380010013093 0.0356772969624077 -0.188513792624967 0.222350143195222 1782111453.26789
 0.0216061439414698 -0.0242926786740478  -0.219738911067262 0.222130927000736 1782111453.2867
-0.0761707250007949 -0.0725711116195456  -0.177627788708466 0.206446547344107 1782111453.30398
 -0.102845787148333 -0.0853519943613461   -0.15914000759309 0.207816652105524 1782111453.3236
 -0.15172414598725 -0.208027111649353 -0.126563448396055 0.28690382034165 1782111453.34173
 -0.200381150386911  -0.293115024586725 -0.0842871986780151 0.364929246470936 1782111453.36753
  -0.17720981903907  -0.285192438343656 -0.0735403954754787 0.343724070467795 1782111453.3867
 -0.176715757923635  -0.264492780975214 -0.0478248667848131 0.321670807145306 1782111453.4056
 -0.180543048652032   -0.23424431288252 -0.0245999364639065 0.296768171151157 1782111453.42325
  -0.191677796219333   -0.240540243560436 -0.00636534646023857 0.307636967822746 1782111453.44127
 -0.203019721759508  -0.253774751191511 -0.0252257300491045 0.325967742609805 1782111453.46755
 -0.182415150894899  -0.214275719650255 -0.0522496328372829 0.286215644993901 1782111453.48795
 -0.0614460555329057   -0.208669734795366 -0.00305276631090288 0.21754998354923 1782111453.50574
-0.00507355947489451   -0.204788421509751   0.0713741499341708 0.216929269276938 1782111453.5234
0.0409602578896872 -0.264868955195261  0.110910925359082 0.290059544777666 1782111453.54135
0.0295047378986593 -0.295315462169951  0.165320437219305 0.339724298097004 1782111453.56809
0.0330053179271257 -0.252561934807323  0.120420492240013 0.281740974791414 1782111453.58896
0.0829012691103579 -0.194736193735597  0.122980517492578 0.24478360495237 1782111453.606
0.0774617743588328 -0.151609670031527  0.110764632704423 0.203112339339669 1782111453.62368
0.0852170257422171 -0.195538201152225 0.0659409580840778 0.22326069859974 1782111453.64136
 0.068337962258093 -0.251984979207091 0.0619456987440421 0.268335194159235 1782111453.66752
-0.00332983717608014   -0.202471551230854  0.00576876954894032 0.20258108395296 1782111453.68819
0.0216830519111845 -0.217536979246564 0.0324215674984556 0.221005995662924 1782111453.70601
0.0318539286658497 -0.186500998765877 0.0861184058644873 0.207878991581062 1782111453.72343
0.0202232292309193 -0.225191275542452  0.104238029010608 0.248969187396712 1782111453.74327
-0.00520825379800079   -0.251548014941855    0.116438700780803 0.277239067896885 1782111453.76751
-0.0509883886124462  -0.210196556139196   0.053137542291798 0.222724058841618 1782111453.78898
-0.0579649994361602  -0.207339843430242  0.0637655412762006 0.224534621133486 1782111453.80683
-0.065039928568126 -0.143292478628117 0.0574189449541752 0.167510781680424 1782111453.82334
-0.0973857681607597  -0.192677834136178  0.0117101926072277 0.216207918954344 1782111453.84246
 -0.129617163229419  -0.236136509764156 -0.0119080309179073 0.269634681462866 1782111453.86746
 -0.160037548212953  -0.182037308657716 -0.0764148901095202 0.254143333597023 1782111453.88924
-0.0672336294689022  -0.176056361002143 -0.0432600640120331 0.193358827880197 1782111453.90712
-0.0353888426536513  -0.127489094120474 0.00170915954199863 0.132320673102746 1782111453.92348
-0.0176969719605755  -0.131710072863306 -0.0089984534247034 0.133197966479475 1782111453.94231
-0.00104534483712128   -0.129966015476492  0.00400551273787167 0.130031927067769 1782111453.96702
 0.0676638863992978 -0.0873546710463509  0.0178254469583212 0.111924021709092 1782111453.98929
  0.156108540292733 -0.0754003030858633  0.0753249361447401 0.189020972547961 1782111454.00772
  0.162931658262411 -0.0620846545424524   0.101128600130707 0.201564439716413 1782111454.02546
0.164459122315564  -0.1127503850845  0.07906289007217 0.21450033295096 1782111454.0424
 0.145634415946395 -0.232626873967753 0.0583710012373171 0.280591908980824 1782111454.06612
0.0830190085262113 -0.242840539122338 -0.023031002374071 0.257670546023905 1782111454.09026
 0.0182157127116263  -0.256542591305427 -0.0454042489354926 0.261165578062446 1782111454.10785
-0.0138072005640659  -0.271784558555276  -0.055361322318502 0.277709130324078 1782111454.12406
-0.0643681383045562  -0.277643895166671  -0.089697735394392 0.298789346341194 1782111454.14202
 -0.133061465817533  -0.334106852120742 -0.0721408377822289 0.366792915410676 1782111454.166
 -0.204422893375476  -0.280526754539247 -0.0812570400667842 0.356492196140027 1782111454.1913
  -0.20807764317687   -0.27118817457692 -0.0513773515896542 0.345657292526528 1782111454.2081
 -0.224490284204128  -0.258469191057782 -0.0118877296165447 0.342554416908541 1782111454.2242
  -0.268133820668448    -0.29497864800644 -0.00719743262770178 0.398697819911769 1782111454.24193
 -0.291769450460299  -0.360418858344269 -0.0401552791079662 0.465449902902911 1782111454.2658
  -0.24935095272061  -0.321028892713003 -0.0561415444911169 0.410350241375658 1782111454.29073
 -0.0578800680534672   -0.369503124142321 -0.00331519704726807 0.374023597598162 1782111454.30858
0.0655969759337121 -0.340497480546214 0.0637397169928174 0.352568077159989 1782111454.32423
 0.135176466036624 -0.375049533536349 0.0872016586541845 0.408091850994387 1782111454.34191
 0.150452742885045 -0.385129375237425  0.118369713171106 0.430083773826232 1782111454.36454
 0.189575970519605 -0.314449341962658  0.116978235563395 0.385358722302641 1782111454.39163
 0.166654772960399 -0.311699685742749 0.0510444766849602 0.357121892415813 1782111454.40891
 0.180769444967327 -0.204728736430398 0.0480949640201578 0.277316738258409 1782111454.4257
 0.132817417905605   -0.2519316206062 -0.036204217158128 0.287090148386201 1782111454.44239
 0.0955359734663618  -0.405578428350242 -0.0607057108133193 0.42107738848645 1782111454.46783
  0.126063007714683  -0.413928667659082 -0.0312003495388142 0.433822873573351 1782111454.49191
  0.162332236937528  -0.433511157338376 -0.0220030074002892 0.4634304813245 1782111454.51019
 0.171860112791411 -0.381747330615508 0.0316469420585385 0.419843365723932 1782111454.52616
 0.103175249380616 -0.344413390122509 0.0410782525548124 0.361874478532804 1782111454.54258
0.0473375411127065  -0.29493314674671 0.0212991073380534 0.299466284950262 1782111454.56796
-0.0637878453725809  -0.203300726320666 -0.0440153850499832 0.217571663276459 1782111454.59392
 -0.170917058565758  -0.212888685209724 -0.0505875255564769 0.277656858263979 1782111454.61161
  -0.127055930496679   -0.210453812673875 -0.00729393638747011 0.245941493553593 1782111454.6269
 -0.137320081174973  -0.242264860123968 -0.0250771630064376 0.279603167452085 1782111454.64423
 -0.161445342770392  -0.241817842191617 -0.0766084699079893 0.300681434688114 1782111454.66804
-0.132353265338703 -0.204495270761527 -0.140185910541064 0.281047668775022 1782111454.69427
-0.0296139454482501  -0.214997423079487  -0.150394589095205 0.264044333635372 1782111454.71221
 0.111637479210991 -0.140358593750102 -0.138045652138593 0.226318500521853 1782111454.728
 0.146003378671466 -0.185071165313472 -0.230367407547376 0.329601980082142 1782111454.74579
  0.13913249026699 -0.256388282295013 -0.284343223187586 0.407362086746897 1782111454.7682
 0.213575498663146  -0.22749615761691 -0.212489316923836 0.377519145430306 1782111454.7947
 0.266076588604647 -0.257344443692692 -0.119492663360653 0.388974819622055 1782111454.8126
 0.244830047766016 -0.243707836655605 0.0185988012451809 0.345949674583201 1782111454.82826
 0.202531926016636 -0.276804653069792  0.116048356898182 0.362087307366419 1782111454.84498
 0.133604002947566 -0.272487675404614  0.192837429259111 0.359563397712122 1782111454.86798
0.0627533297445813  -0.20517818990122  0.177855728625885 0.278691101777968 1782111454.896
0.00174235973190382  -0.198063698451552   0.088220055769768 0.216829524515836 1782111454.91391
0.0206829576302243 -0.205331648689051  0.102889004252605 0.230597089933481 1782111454.92897
-0.0190187574707635   -0.20989714792192  0.0712036707144989 0.222460083081678 1782111454.94502
-0.073670551923058 -0.186387822396646 0.0346919064382903 0.203399358235799 1782111454.96823
-0.061067381045177 -0.114694346212716 0.0426350916386251 0.136754411701829 1782111454.99667
-0.0045814819434252  -0.144532311005843  0.0599492840015926 0.156539118286105 1782111455.01395
 0.117471337953664 -0.146585776698715   0.13360262996466 0.23051370437452 1782111455.02893
 0.108553441789115 -0.164161340857575  0.174418954554755 0.262972940175208 1782111455.04501
0.0488526474899965 -0.195002683036222  0.195974606008385 0.280746636236748 1782111455.06713
0.00982555044978119  -0.183190315930541   0.199215347330861 0.270817259244178 1782111455.09666
-0.00850035783812473   -0.207574208087992     0.11104126024001 0.235562028821334 1782111455.11419
  0.10064910350531 -0.247253521817333  0.113152233152182 0.289944777422913 1782111455.12929
 0.106902922342834 -0.285764956759244 0.0795125066662467 0.315296818939552 1782111455.14475
 0.102291717979132 -0.345863362678556 0.0293621356976233 0.361866268424077 1782111455.16693
 0.116091552255638 -0.329612609459083 0.0353489940109129 0.351242469239033 1782111455.19669
  0.0520122803671548   -0.295520075192128 -0.00247390868205808 0.300072511861249 1782111455.21438
 0.129204115157628 -0.309499219887233 0.0382473427050593 0.337559372123586 1782111455.23003
 0.109916039084797 -0.294449563786782 0.0679255555776675 0.321552425527862 1782111455.2464
0.0729572696338075 -0.198229032814345 0.0668185771082382 0.221545108024755 1782111455.26848
0.0399179041586917 -0.125947127050939 0.0851769574112018 0.157198066014305 1782111455.2969
-0.0202405085582646   -0.11815894030695  0.0445201316087672 0.127879847824513 1782111455.31468
 0.051678129310953 -0.177682774347091 0.0517901525537885 0.192156231359546 1782111455.33041
0.0504244873373227 -0.207141231194696 0.0763542808164579 0.226451086954964 1782111455.34669
-0.00905400154583829   -0.223932475896379   0.0751271291937654 0.236372194316445 1782111455.36774
-0.0195290862871935  -0.206045338744684    0.11578170530244 0.237152841248772 1782111455.39688
-0.0298866538167918  -0.210373057257679   0.070146681428019 0.223764591058709 1782111455.41493
0.0679903991252883 -0.305584772517328  0.100959647514905 0.328934032891121 1782111455.43065
  0.150991288699154  -0.295744417335747 0.00527556951311772 0.33210082999291 1782111455.44681
0.0886516194839465 -0.288895182504271  0.036728190686985 0.304415006368677 1782111455.46771
0.0509354481003835 -0.272832767791467  0.131496249228977 0.307121152992152 1782111455.4969
0.0304657800551607 -0.259765365039171  0.115183465496554 0.285785652810107 1782111455.51657
0.0940828471744616 -0.315295549612682  0.122987632348543 0.351267452874184 1782111455.53132
0.0956141873053124 -0.316118290683982  0.130872632683039 0.355247086553018 1782111455.54712
 0.062583063566055 -0.268566445439579 0.0682673569422574 0.284086267681571 1782111455.5675
 0.044692174655831 -0.253348317061253 0.0778001609354691 0.268766860447529 1782111455.59887
-0.000686316781093246    -0.211353189706823    0.0352545011740249 0.214274407438223 1782111455.61694
0.0697109539321268 -0.280681134103015 0.0554070331928249 0.294468089046526 1782111455.63261
0.0447710194753374 -0.308573948508685 0.0617497580571288 0.317860596021614 1782111455.64753
0.0145262992910545 -0.264420941844309 0.0218142021878549 0.265716592018672 1782111455.66757
-0.00266020174648896   -0.256262477054366    0.013920381926114 0.256654068450785 1782111455.69893
 -0.0461256468363588   -0.153897587587163 -0.00520299212339239 0.160745494146048 1782111455.71713
-0.00176495403356399    -0.23832974713181   0.0306326230869105 0.240296776981793 1782111455.73283
-0.0359274715108557  -0.256664097882569  0.0646788359571579 0.267115319987098 1782111455.74868
-0.0764852006723447  -0.201468220090927  0.0411128016630654 0.21938480368768 1782111455.76764
-0.0857560138341576  -0.204745604796244 -0.0104654712219631 0.222225972109476 1782111455.79906
 -0.120464770749367 -0.0981519385322102 -0.0595995793508727 0.166426181498373 1782111455.81745
-0.0312733350897428  -0.143465196416687 -0.0594034220362927 0.158395235471702 1782111455.83303
-0.0138497149810756   -0.20886989461213 -0.0491740673277379 0.215026827112089 1782111455.849
 -0.0653470491786845   -0.168114864820101 -0.00581073775046992 0.180462210124577 1782111455.86761
-0.098885521163383  -0.17213364412691 0.0424362107190212 0.203000418020143 1782111455.89919
-0.0701299965416858  -0.120340354183802  0.0208885889768386 0.14084157912159 1782111455.91868
0.0186390787421146  -0.21857819247315 0.0755837068866286 0.232027451453288 1782111455.93378
0.0201318869385603 -0.260104439027847  0.103208621502565 0.280555933150874 1782111455.94931
-0.0171798045027735  -0.217706576154448  0.0842727864596671 0.234079476933204 1782111455.96758
-0.0371106507523366  -0.198006289755881  0.0992908615154589 0.22459378077461 1782111455.99943
-0.0631407647802889  -0.112235905277433  0.0512015900930784 0.138583034454238 1782111456.019
0.0125725101696622 -0.175420098293884 0.0958417621749352 0.200289596020859 1782111456.03414
0.0132319182010844 -0.157567136115603  0.138989089072821 0.210524233579523 1782111456.04984
-0.0383190354988329  -0.101210883766524  0.0675654988833171 0.12758169192213 1782111456.06747
-0.0600003001233981 -0.0788907968507015  0.0584264150859435 0.115054073471701 1782111456.09905
-0.0827676869604541 -0.0159294723587502  0.0105421091790428 0.0849433585417646 1782111456.11898
-0.00510065293146172   -0.109957155652009   0.0309871775534934 0.114353827710921 1782111456.13415
0.000117013453550831   -0.138125552732223   0.0603982024051856 0.150753523552547 1782111456.1499
-0.0415346595717627  -0.090304021757183   0.032090605644007 0.104449754723806 1782111456.16758
-0.0667367792097717  -0.106747856122606  0.0723987784153832 0.145225636862457 1782111456.19808
-0.0392427462512767 -0.0657069965887428  0.0623729203265769 0.098730865103678 1782111456.21919
0.0607227901379192 -0.162766840983044 0.0483241015159582 0.180320604904314 1782111456.23506
0.0835025507571326 -0.228885783418554 0.0422269637479405 0.247274127844873 1782111456.24992
  0.052243644765891  -0.187172406500746 0.00287416410782755 0.194348061459392 1782111456.26721
-0.00545577467105244    -0.23076638234678   0.0433766269770035 0.234871072008845 1782111456.2978
0.0175783847457857 -0.153296443516423 0.0558293608036756 0.164090574783568 1782111456.31951
0.0423491034645089 -0.234459518786114 0.0572842097153285 0.245043247604119 1782111456.33514
0.0460696824792181   -0.2668339848447 0.0992823414330711 0.288409040136176 1782111456.3511
 0.026194214819699 -0.202281758963049 0.0409645396323588 0.208043602176315 1782111456.36719
-0.0148937285687609  -0.260536169827827  0.0555894924788569 0.266816623569993 1782111456.39738
-0.0428896557709743  -0.148919905005332  0.0100275728491249 0.155297176072825 1782111456.41931
-0.0429499971875429  -0.201388213613056 -0.0107037835688874 0.206195261398892 1782111456.43501
-0.00741892559788956   -0.213280050277551   0.0227980386128198 0.214623323215379 1782111456.45108
 -0.0222727871990669   -0.137615894466498 -0.00619788788365088 0.139544348770015 1782111456.46614
-0.0555877503838429  -0.149662266793184 0.00277215298705465 0.159676162674941 1782111456.49587
-0.0138235107785029 -0.0640359831465149  0.0140334273362221 0.0669972661426208 1782111456.51932
0.00726064360478425  -0.160728761943612  0.0353951773563614 0.164740008624408 1782111456.53513
0.0348035799639615  -0.21844570077598 0.0628426010661042 0.22995435606783 1782111456.5503
0.0266057230533747 -0.164549920488028 0.0452888351677113 0.172729903093405 1782111456.56767
 0.015253862996975 -0.161527564198241 0.0649980495106313 0.174781522971777 1782111456.59566
 0.0310335877794163 -0.0910288693818661  0.0938532446768148 0.134379202884113 1782111456.6195
 0.067158980562371 -0.171892577108138  0.125888421047038 0.223394899871887 1782111456.63513
0.0959286152497879 -0.216335317473012  0.137377949668737 0.273634738045222 1782111456.65124
0.0372274492298514 -0.149689793702531 0.0742666784626256 0.171197128611255 1782111456.66762
0.0183256517775229 -0.195705598816473 0.0546266323675244 0.204011224899518 1782111456.69554
0.0231042080284434 -0.107070540725329 0.0628967745767369 0.126308785806819 1782111456.7202
0.00887983084685222  -0.149209794792413  0.0847200505703516 0.171813565315738 1782111456.73566
0.0280094137110832  -0.16008968884218  0.110709463403232 0.196646436573502 1782111456.75165
-0.0328511084778072  -0.146728531071291  0.0734371514900329 0.167336404818347 1782111456.76784
-0.0825404883055015  -0.180649642045797   0.081688042680616 0.214756051598029 1782111456.79539
-0.0562463752705717  -0.136913171672441  0.0627523293465172 0.160769170386922 1782111456.82133
-0.0278176667638444  -0.172741806311846  0.0432837884630522 0.180241617213611 1782111456.83605
0.000332789161925359    -0.19531703327031   0.0552654002597953 0.202985513522559 1782111456.85178
-0.0297237157538525  -0.180922095735372  0.0354602205226074 0.1867450969718 1782111456.86786
-0.0624055284622704  -0.212614267383706 0.00757194825219163 0.221712902371737 1782111456.89403
-0.0572673891160944  -0.171861633744298 -0.0283335074309028 0.183354199986721 1782111456.92063
-0.0398943205739899  -0.179382049193854 -0.0625557915124474 0.194120332368342 1782111456.93599
 -0.0275263193463078    -0.22983181377324 -0.00938098666436802 0.231664334306878 1782111456.95179
-0.0396883916906039  -0.192008528004204 0.00713257426189299 0.19619713778985 1782111456.96786
-0.0932515198957409  -0.175530111308801 0.00757746690182507 0.19890722446305 1782111456.99233
 -0.085469497934034  -0.111272730202736 -0.0372739949260217 0.1451757771173 1782111457.02053
-0.0359703095480395 -0.0670365609407779 -0.0618463312299613 0.0980445427260207 1782111457.03603
-0.00403625935233779   -0.117300763284625  0.00973838524194834 0.117773497034925 1782111457.05199
-0.00895852182427687   -0.113425559623958   0.0671007403616751 0.132091339785654 1782111457.06806
-0.0135808020405252  -0.115821437091807   0.140588970139654 0.18265897732935 1782111457.09194
-0.0494880805062927 -0.0916108279367312   0.112807293655532 0.153515795308939 1782111457.12011
-0.0230967901420823 -0.0752528041172441  0.0333521104453423 0.0854915756875145 1782111457.13594
 0.0146231777452576 -0.0968207271493678  0.0350114596663203 0.103989868934758 1782111457.15207
 0.00171200392563837  -0.0848946905606254 -0.00576641107038167 0.0851075257510073 1782111457.16806
-0.0477924729593336 -0.0677210363916687 0.00824125334938246 0.0832957231693144 1782111457.18833
-0.0941346700378575 -0.0376025560435836  0.0194207851481873 0.103210732096615 1782111457.21993
-0.0449137520285388 -0.0184280975541857 -0.0140954730183565 0.0505521736462328 1782111457.23591
-0.0162940947320669 -0.0577158164769448  0.0223030414773069 0.0639846751486356 1782111457.25201
 0.00432354917951696 -0.00729011006684168   0.0702946817727156 0.0708038209973284 1782111457.26808
-0.0148971204794872 0.00752963389040993   0.150225192874886 0.151149687923597 1782111457.28807
-0.098468032133706 0.0104316951825972   0.15940851623512 0.187658862473771 1782111457.31992
-0.147478769146165 0.0473235275593323 0.0211478513338231 0.156322535885151 1782111457.33598
 -0.139013161386754  0.0423386295892468 0.00951256523302507 0.145628663015038 1782111457.35202
 -0.169601742868663   0.072059345530313 -0.0174693028482855 0.185101261487734 1782111457.36833
 -0.216841686740148   0.132475524587343 -0.0527359943298382 0.259521033484689 1782111457.38779
-0.250091439183306  0.162964162022082 -0.162630178377204 0.339928846930262 1782111457.41873
-0.240720797837893  0.215841657078765 -0.201075533419507 0.380743343450885 1782111457.43579
-0.192297595976314  0.164692652752842 -0.116902270457392 0.278869460728727 1782111457.4519
 -0.160662600626794   0.104586109297837 -0.0450146100357439 0.196918868102815 1782111457.4683
 -0.173064557998145    0.11298033181989 -0.0472148401186256 0.212002683333615 1782111457.4862
-0.187990529040532  0.142065279600079 -0.110873515112613 0.260414897865338 1782111457.51805
-0.213790802722849   0.12784232413855 -0.105496723118174 0.270517514698585 1782111457.535
 -0.153836485168305 -0.0105419683606753 -0.0231673809031116 0.155927947474997 1782111457.55187
 -0.123822770116718 -0.0783202775952508   0.063103030567608 0.159524721434614 1782111457.56847
-0.157900292753169 -0.102178060204475 0.0831804418021007 0.205649809961202 1782111457.5863
 -0.20567450590695 -0.119268488595824  0.151533954126785 0.281938847988884 1782111457.61704
