 0.0830556952979 -0.0107150122343 -0.0213228169345 1782111451.75
 0.0332870023445 -0.0109481570327 -0.0269291969715 1782111451.77
 -0.0188571505724 -0.00797730664181  -0.0312966984689 1782111451.79
  -0.068901772543 -0.00169605218451  -0.0334220303444 1782111451.8
 -0.112359253948 0.00766573560545 -0.0325379175747 1782111451.82
 -0.145376734398   0.019521171356 -0.0283288685264 1782111451.85
 -0.165331251365  0.0329315289485 -0.0210847373735 1782111451.87
-0.171259654944 0.0466493209786 -0.011739210343 1782111451.89
  -0.164031098487   0.0592125131116 -0.00176306207142 1782111451.9
 -0.146212887364  0.0690979297803 0.00708394167288 1782111451.92
-0.121638379734  0.074929701084 0.0131017806844 1782111451.94
-0.0947467436437  0.0757211820965  0.0150287380633 1782111451.97
-0.0698147899977  0.0711103540565  0.0123635726602 1782111451.99
-0.0502282726901  0.0615351729023  0.0055489293037 1782111452
  -0.037936435207    0.048292823939 -0.00404308556178 1782111452.02
-0.0331990272253  0.0334398005478 -0.0143431879914 1782111452.04
-0.0346767677741  0.0195186891704 -0.0230072848393 1782111452.07
-0.0398467810182 0.00913782392745 -0.0279539467805 1782111452.08
-0.0456583249029 0.00447210338648 -0.0279058257382 1782111452.1
-0.0492944229891 0.00678542907375 -0.0228081901332 1782111452.12
-0.0488814471078  0.0160868474297 -0.0140087134206 1782111452.14
 -0.0439958329381   0.0310174672339 -0.00412108187484 1782111452.17
-0.0358538514464  0.0490238730384 0.00344402979711 1782111452.18
-0.0271304316929  0.0668129547817 0.00522330661906 1782111452.2
  -0.021426183495   0.0810151443213 -0.00141022805783 1782111452.22
-0.0224752418553  0.0889234343816 -0.0174021698734 1782111452.24
-0.0332465818066  0.0891396834778 -0.0414308956773 1782111452.27
-0.0551251166304  0.0819595846232 -0.0697779527336 1782111452.28
-0.0873566972583  0.0693688677046  -0.096780611181 1782111452.3
-0.126899858631 0.0546027745825 -0.115871716958 1782111452.32
-0.168751838667 0.0413258151858 -0.121059864934 1782111452.34
-0.206720303564 0.0325972658068  -0.10855366747 1782111452.37
 -0.234514690788  0.0298716504334 -0.0781319200804 1782111452.38
-0.246953652001 0.0323145618002 -0.033849269903 1782111452.4
-0.241046568186 0.0366734988687 0.0162306595562 1782111452.42
-0.216718687997 0.0378290925243   0.06137258452 1782111452.44
-0.177010999717 0.0299842058436  0.090400402265 1782111452.47
 -0.127685421558 0.00826668184643   0.094376572178 1782111452.48
-0.0762822561364 -0.0296239135637  0.0691035726792 1782111452.5
-0.0307857889617 -0.0821580300612  0.0167893595557 1782111452.52
0.00186613759006  -0.143491325889 -0.0536378213848 1782111452.54
0.0171563221571 -0.203981970829 -0.127785107502 1782111452.57
0.0139868675263 -0.251706844533 -0.188463520676 1782111452.58
-0.00489733944621   -0.274723516715   -0.219247586338 1782111452.6
-0.0331635873348  -0.263622833132  -0.208150889653 1782111452.62
-0.061810522168 -0.213817520984 -0.150570192005 1782111452.64
-0.0806179987303  -0.127043040223 -0.0507840414683 1782111452.67
 -0.079893115546 -0.0117008628762  0.0783981417784 1782111452.69
-0.0522140370496   0.118086789976   0.217827215363 1782111452.7
0.00613953585905   0.244575063617   0.345618300897 1782111452.72
0.0943353345833  0.349276818474  0.441415890321 1782111452.74
0.206884042398 0.416098609267 0.490413144696 1782111452.77
0.334311588463  0.43415469603 0.486267482269 1782111452.79
 0.46449045635 0.399738986015 0.432295433839 1782111452.8
0.584385588112 0.317085936991 0.340706089634 1782111452.82
0.681894963418 0.197768785801 0.230057488536 1782111452.84
 0.747459068012 0.0588312319325  0.121497495004 1782111452.87
  0.775178077071 -0.0800147886896  0.0345964567404 1782111452.89
  0.763292664808  -0.199611827011 -0.0163584069864 1782111452.9
  0.714022046688  -0.284402005213 -0.0248658417464 1782111452.92
  0.632875415127  -0.324732880558 0.00694557414577 1782111452.94
 0.527632177917 -0.318019398018  0.069218029502 1782111452.97
 0.407210080486 -0.268602433079  0.146725320648 1782111452.99
 0.280613709618 -0.186420324255  0.222123168765 1782111453
    0.1560968559 -0.0848486452399   0.279373338155 1782111453.02
0.0406024228882 0.0217925986601  0.306644876697 1782111453.04
-0.06051916516 0.120546716494 0.298162018412 1782111453.07
-0.143557553195  0.201527282901  0.254732875303 1782111453.09
-0.206325652715  0.258793514362  0.182989020703 1782111453.1
-0.247954373776  0.290375622088 0.0936254795497 1782111453.12
     -0.2686659384       0.2976154685 -0.000899599917384 1782111453.14
 -0.269573165294   0.284102670333 -0.0886935421394 1782111453.17
-0.252526755798   0.25451590472 -0.160335849701 1782111453.19
-0.220007210224  0.213631683311 -0.210061039497 1782111453.2
-0.175038172346  0.165664174452  -0.23610536226 1782111453.22
-0.121088125942  0.113983540729 -0.240288354116 1782111453.24
-0.0619294677072  0.0611583005585  -0.227037879213 1782111453.27
-0.00143711849807  0.00920123252465   -0.202138086559 1782111453.29
0.0566706551583  -0.04012329095 -0.171481641646 1782111453.3
  0.109124133333 -0.0850543697664  -0.140054544851 1782111453.32
  0.15338342451  -0.12373095663 -0.111296079494 1782111453.34
  0.187857106072  -0.154253493506 -0.0868811827756 1782111453.37
  0.212010575895  -0.174884535938 -0.0668868157714 1782111453.39
  0.226334470974  -0.184326667013 -0.0502402648786 1782111453.41
  0.232171753085  -0.181999827315 -0.0353118575298 1782111453.42
   0.23143343967  -0.168243145698 -0.0205082176263 1782111453.44
   0.22625848975  -0.144385309287 -0.0047419846623 1782111453.47
 0.218685247686 -0.112657569383 0.0123058368463 1782111453.49
  0.210396359524 -0.0759585486101  0.0301619320584 1782111453.51
  0.202577838841 -0.0375129866537  0.0477505286338 1782111453.52
    0.195902369155 -0.000490000553094    0.0637248579839 1782111453.54
 0.190616045799 0.0323457235567 0.0768390037315 1782111453.57
 0.186685411516   0.05888661705 0.0862558511993 1782111453.59
 0.183953550842  0.077801361221 0.0917111705916 1782111453.61
 0.182260931297 0.0885172472286 0.0934994114065 1782111453.62
 0.181504483319 0.0910958348506 0.0923008234143 1782111453.64
 0.181630228953 0.0860555013664 0.0889163039872 1782111453.67
 0.182574027401 0.0742022087209 0.0840019976783 1782111453.69
 0.184177589305 0.0565198911851 0.0778924748517 1782111453.71
 0.186111538641 0.0341469455259 0.0705703675891 1782111453.72
  0.187834603955 0.00843217746472  0.0617912932134 1782111453.74
   0.1886095057 -0.018968340796 0.0513210794176 1782111453.77
   0.18758363019 -0.0460131282217  0.0392038946664 1782111453.79
  0.183928184051 -0.0702788980784  0.0259667234331 1782111453.81
  0.177015314294 -0.0890926898169  0.0126815908934 1782111453.82
   0.166600791723  -0.0998069292059 0.000847132178115 1782111453.84
   0.152972579895   -0.100191293608 -0.00789624479318 1782111453.87
  0.137025412624 -0.0888769661992 -0.0121531981709 1782111453.89
  0.120230408865 -0.0657629084177 -0.0111642316164 1782111453.91
   0.104487082316  -0.0322874289111 -0.00509454947241 1782111453.92
 0.0918702852568 0.00851586916166 0.00486453206246 1782111453.94
0.0843111241252 0.0522234173791 0.0166238691182 1782111453.97
0.0832715222248 0.0934862602018 0.0275416327594 1782111453.99
0.0894802485392  0.126701364353 0.0349194147985 1782111454.01
 0.102789963445  0.146794054314 0.0365454330948 1782111454.03
  0.12219051151  0.149989166342 0.0311672982917 1782111454.04
0.145978504551 0.134443706404 0.018790634779 1782111454.07
    0.17204632824    0.100632130819 0.000737549675127 1782111454.09
  0.198225678226  0.0514131478395 -0.0205491025548 1782111454.11
   0.222610085111 -0.00824321954604  -0.0419164256715 1782111454.12
  0.243790811612 -0.0718366427466 -0.0600457467352 1782111454.14
  0.260967609879  -0.132146391659 -0.0720264492004 1782111454.17
  0.273931383655  -0.182155613471 -0.0758550688451 1782111454.19
  0.282948782654  -0.215956949555 -0.0707744230449 1782111454.21
  0.288599377795  -0.229507460318 -0.0573995032944 1782111454.22
  0.291618746939  -0.221122085161 -0.0376141476671 1782111454.24
 0.292785899208 -0.191634720518 -0.014258739089 1782111454.27
  0.292867242637  -0.144209729258 0.00933974374325 1782111454.29
  0.29260187313 -0.083845962758 0.0299201512252 1782111454.31
  0.292694743301 -0.0166685683505  0.0448317492541 1782111454.32
 0.293782192235 0.0508618582702 0.0524764770738 1782111454.34
 0.296349336013  0.112687900858 0.0525644084422 1782111454.36
 0.300605499622  0.163733269895 0.0461247127079 1782111454.39
 0.306352072908  0.200262606884 0.0352571052688 1782111454.41
 0.312895333389  0.220025580633 0.0226612721293 1782111454.43
 0.319056037539  0.222237478868 0.0110328808915 1782111454.44
  0.323305576304   0.207472610066 0.00245113098706 1782111454.47
     0.3240211892    0.177538926664 -0.00210699351042 1782111454.49
    0.31981290548    0.135367586612 -0.00301167799523 1782111454.51
   0.309847206648   0.0849048181155 -0.00191946907859 1782111454.53
   0.294087242527   0.0309551506154 -0.00140793102216 1782111454.54
   0.273388465116  -0.0210881942633 -0.00437480295811 1782111454.57
  0.249424506637 -0.0656705149015 -0.0133246456184 1782111454.59
  0.224458495554 -0.0976577895709 -0.0296944933079 1782111454.61
  0.201007452123  -0.113011176678 -0.0533675125311 1782111454.63
  0.181464362716  -0.109439204416 -0.0824905632437 1782111454.64
  0.167742998804 -0.0868871549527   -0.11365348275 1782111454.67
  0.160998822028 -0.0477338689826  -0.142414750689 1782111454.69
   0.16146177365 0.00338678409296  -0.164083301013 1782111454.71
 0.168398588304 0.0601495655132 -0.174605033255 1782111454.73
 0.180205931493  0.115414952191 -0.171369851626 1782111454.75
 0.194621273264  0.162277702874 -0.153761425873 1782111454.77
 0.209025477608  0.195103018689 -0.123320141792 1782111454.79
  0.220799909592   0.210362817144 -0.0834725449034 1782111454.81
  0.227692837248    0.20712037893 -0.0388803343698 1782111454.83
  0.228146798623   0.187078958245 0.00544621762415 1782111454.84
 0.221541595241  0.154194449381 0.0450672627902 1782111454.87
 0.208316724571  0.113935830377 0.0768549598641 1782111454.9
 0.189951337012 0.0723419337097 0.0993964017396 1782111454.91
 0.168797420339 0.0350553654445   0.11298740459 1782111454.93
  0.147780857715 0.00650790681885   0.119253488462 1782111454.95
  0.130003384061 -0.0106105995709   0.120526540631 1782111454.97
  0.118294504726 -0.0155349065675   0.119157780686 1782111455
   0.114774139266 -0.00926888862885    0.116947334166 1782111455.01
  0.120491709777 0.00583184304041   0.114821569436 1782111455.03
 0.135203248868 0.0266212332401  0.112808879212 1782111455.05
 0.157333476823 0.0497403089231  0.110278118749 1782111455.07
  0.18414512458 0.0721046493232  0.106336494066 1782111455.1
 0.212105621273 0.0912380944735   0.10025257286 1782111455.11
 0.237406166886  0.105437633168 0.0917801447928 1782111455.13
 0.256556295644  0.113794380696 0.0813021467007 1782111455.14
 0.266955274162  0.116117633731 0.0697742488367 1782111455.17
0.267336547352 0.112811618261 0.058505730262 1782111455.2
0.257996977838 0.104742516509 0.048855058452 1782111455.21
 0.240758459282 0.0931145919454 0.0419306710656 1782111455.23
 0.218659890349 0.0793566242541  0.038374116411 1782111455.25
 0.195432078407 0.0650091773789 0.0382705768386 1782111455.27
 0.174854185404 0.0516019791516 0.0411925551343 1782111455.3
 0.160116151013 0.0405179065527  0.046347848806 1782111455.31
 0.153309941876 0.0328518757198 0.0527812250601 1782111455.33
 0.155143301702 0.0292841038373 0.0595737774472 1782111455.35
  0.16492020343 0.0299930557388 0.0659933623119 1782111455.37
 0.180775037438 0.0346312028911 0.0715690947168 1782111455.4
 0.200096614335 0.0423763553502 0.0760864744489 1782111455.41
 0.220044449473 0.0520551521607 0.0795210913576 1782111455.43
 0.238049393291 0.0623178106158 0.0819427659542 1782111455.45
 0.252203565011 0.0718300344102 0.0834251082004 1782111455.47
 0.261475906337 0.0794438371582 0.0839874949119 1782111455.5
 0.265731289313  0.084315719411 0.0835805893083 1782111455.52
 0.265573381664 0.0859558816322  0.082108852109 1782111455.53
 0.262065587806 0.0842106940165  0.079470830141 1782111455.55
 0.256404181939 0.0791966249474 0.0755949868257 1782111455.57
 0.249620586877  0.071213013573 0.0704558572326 1782111455.6
 0.242376388096 0.0606617503549 0.0640684910371 1782111455.62
 0.234888719835 0.0479947835799 0.0564722606051 1782111455.63
 0.226991000226 0.0336979718416 0.0477223503922 1782111455.65
 0.218301930985 0.0183059866053 0.0379054866745 1782111455.67
  0.208451434659 0.00243185787208  0.0271862070098 1782111455.7
 0.197300971414 -0.013210498856 0.0158748667122 1782111455.72
  0.185099214241   -0.02781063385 0.00449414096801 1782111455.73
   0.172530631429  -0.0405047208264 -0.00618729514373 1782111455.75
  0.160639991967 -0.0504578863633 -0.0151827724992 1782111455.77
  0.150644871494 -0.0569741139815 -0.0213921770716 1782111455.8
  0.143675137547 -0.0596129195373 -0.0237754657704 1782111455.82
   0.14049742858 -0.0582878502976 -0.0215635756804 1782111455.83
  0.141289157216 -0.0533235887379 -0.0144579913714 1782111455.85
   0.145518428108  -0.0454552139029 -0.00276652253001 1782111455.87
   0.15196487206 -0.0357631067199  0.0125653912748 1782111455.9
  0.158886479284 -0.0255480833101  0.0300446606361 1782111455.92
  0.164305753907 -0.0161619950899  0.0478299000038 1782111455.93
   0.166361942614 -0.00881781920778   0.0640029225848 1782111455.95
   0.163660697023 -0.00440860510426   0.0768596766518 1782111455.97
   0.155551982586 -0.00336512764177   0.0851652986464 1782111456
   0.142281566024 -0.00557726554639   0.0883274592376 1782111456.02
  0.124987375335 -0.0103948801186  0.0864602791274 1782111456.03
  0.105542961351 -0.0167120975234  0.0803329580554 1782111456.05
 0.0862789842415 -0.0231262211591  0.0712182116222 1782111456.07
 0.0696342332496 -0.0281505413404  0.0606719941307 1782111456.1
 0.0577968101655 -0.0304505739272  0.0502853883689 1782111456.12
 0.0523931896065 -0.0290674573015  0.0414507761788 1782111456.13
 0.0542698966633 -0.0235919024418  0.0351777188062 1782111456.15
 0.0633934623714 -0.0142578990732  0.0319813751107 1782111456.17
   0.078873853847 -0.00193682624273   0.0318513000889 1782111456.2
0.0990986963828 0.0119718096211 0.0342950647673 1782111456.22
 0.121952487695 0.0257393677177 0.0384421876195 1782111456.24
  0.14508714351 0.0375669238409 0.0431900304232 1782111456.25
 0.166207291762 0.0458625453835 0.0473730500425 1782111456.27
 0.183335271442 0.0494915858698 0.0499375025292 1782111456.3
 0.195026091867 0.0479592443262  0.050103355264 1782111456.32
 0.200510469853 0.0414965135861 0.0474936636012 1782111456.34
 0.199753012268 0.0310367399964 0.0422109598484 1782111456.35
 0.193421593384  0.018087145099 0.0348431604138 1782111456.37
  0.182772769263 0.00451533517333  0.0263901034314 1782111456.4
   0.169466913594 -0.00771678996916   0.0181157049777 1782111456.42
   0.15533551159 -0.0168317917928  0.0113468371495 1782111456.44
  0.142130670959 -0.0214867477818 0.00725373364573 1782111456.45
  0.131291638414 -0.0209582910473 0.00665353642234 1782111456.47
  0.123763093228 -0.0152369459167 0.00987588141658 1782111456.5
  0.119893968677 -0.0050192752332  0.0167172890973 1782111456.52
  0.119433471621 0.00839834943271  0.0264923082392 1782111456.54
 0.121624453199 0.0233065371774 0.0381683554494 1782111456.55
 0.125376652907 0.0378216165608 0.0505530479513 1782111456.57
 0.129487751659 0.0501414049533 0.0624919101092 1782111456.6
 0.132872050571 0.0587817655808 0.0730333304115 1782111456.62
 0.134756343772 0.0627611848069 0.0815269823824 1782111456.64
 0.134809473638 0.0617083047622 0.0876396515286 1782111456.65
 0.133184293401  0.055878539071 0.0912944538717 1782111456.67
 0.130466230669 0.0460795357587 0.0925602007226 1782111456.7
 0.127539159695 0.0335196212983 0.0915312362459 1782111456.72
 0.125394258963 0.0196060400934 0.0882399733668 1782111456.74
  0.124918079077 0.00572819134801  0.0826333787113 1782111456.75
    0.12669982895 -0.00693681601213   0.0746237360372 1782111456.77
  0.130894012654 -0.0175639033537  0.0641993958696 1782111456.8
  0.137163899178 -0.0257440609388  0.0515602977801 1782111456.82
  0.144716141895 -0.0314675312037  0.0372319665429 1782111456.84
  0.152420103862 -0.0350379315578  0.0221136472528 1782111456.85
  0.158990077998 -0.0369430028916 0.00743098804509 1782111456.87
    0.16319727951  -0.0377147601363 -0.00541225157384 1782111456.89
  0.164073225935 -0.0378103036769 -0.0150614040599 1782111456.92
  0.161067898465 -0.0375353882877  -0.020470785096 1782111456.94
  0.154134676683 -0.0370193254105  -0.021135795813 1782111456.95
  0.143728029511 -0.0362361485216 -0.0172367579234 1782111456.97
   0.130716824187   -0.035056956418 -0.00964923440687 1782111456.99
   0.116232502929  -0.0333143207292 0.000196575910229 1782111457.02
  0.101483472611 -0.0308620771644  0.0105898465875 1782111457.04
 0.0875716165291 -0.0276211171802   0.019894256007 1782111457.05
 0.0753425480999 -0.0236105915697  0.0269054693968 1782111457.07
 0.0652896359917 -0.0189702310597  0.0311217830408 1782111457.09
 0.0575170573507 -0.0139803958565   0.032850163238 1782111457.12
  0.0517542135655 -0.00908164359958   0.0331042091535 1782111457.14
  0.0474066158495 -0.00488745658269   0.0333018939878 1782111457.15
  0.0436280802161 -0.00217634221295   0.0348266674304 1782111457.17
  0.0394043072885 -0.00184684874194    0.038559500156 1782111457.19
  0.0336453417322 -0.00482372370361   0.0445074197648 1782111457.22
 0.0252901306818 -0.0119157367956  0.0516386197812 1782111457.24
 0.0134273524664 -0.0236429904994   0.057987491646 1782111457.25
-0.00256829070377  -0.0400685269158   0.0610262588823 1782111457.27
-0.0228947398132  -0.060678973526  0.0582306675991 1782111457.29
-0.0471975023016 -0.0843562763392  0.0477140680614 1782111457.32
-0.074489916231 -0.109465612306   0.02878181679 1782111457.34
 -0.103148713761  -0.134057014467 0.00227237513754 1782111457.35
 -0.131006774806  -0.156147989803 -0.0294014448267 1782111457.37
 -0.155548546794  -0.174030694799 -0.0625309263447 1782111457.39
 -0.174192193198  -0.186537365926 -0.0926603868875 1782111457.42
-0.184621495805 -0.193204835807 -0.115302310041 1782111457.44
-0.185115694169 -0.194301370017 -0.126684199106 1782111457.45
-0.174821121888 -0.190710752898 -0.124391115627 1782111457.47
-0.153916078379 -0.183701081079 -0.107791617348 1782111457.49
 -0.123638096686  -0.174630743591 -0.0781760330683 1782111457.52
-0.0861666853047  -0.164655892721 -0.0385856925574 1782111457.54
-0.0443798856506  -0.154500757883 0.00663773793333 1782111457.55
-0.00152468095633   -0.144336680469   0.0525080573846 1782111457.57
0.0391450756983 -0.133792322645 0.0941452880734 1782111457.59
0.0747072134845 -0.122091311914  0.127491818164 1782111457.62
0.102839904167 -0.10828928794 0.149866730311 1782111457.63
  0.121992850391 -0.0915635217303    0.16025840342 1782111457.65
  0.131455695827 -0.0714973641569   0.159305482604 1782111457.67
  0.131337574265 -0.0483001210986   0.148980139775 1782111457.69
  0.122482878452 -0.0229113484789   0.132050681452 1782111457.72
  0.106349558795 0.00304273767562    0.11144667495 1782111457.73
0.0848692288014 0.0274453682117 0.0896661893762 1782111457.75
0.0602975572434 0.0480102265432 0.0683473042669 1782111457.77
0.0350544721944 0.0626705109354 0.0480807040496 1782111457.79
0.0115509671946 0.0699615129466 0.0284806071965 1782111457.82
-0.00799604076739   0.0693216079868  0.00847357532105 1782111457.83
-0.0217498073389  0.0612531286002  -0.013277823916 1782111457.85
-0.0284202387019  0.0473129003393 -0.0379196926363 1782111457.87
-0.0273854573887  0.0299341908842 -0.0660199624712 1782111457.88
-0.0187462508258  0.0121099973951 -0.0973280777684 1782111457.91
 -0.0033021471351 -0.00301279755149   -0.130724871248 1782111457.93
 0.0175462332682 -0.0125694515112  -0.164366914572 1782111457.95
 0.041948225431 -0.014384392384 -0.195991555623 1782111457.97
  0.0677776484736 -0.00729647300801   -0.223317269066 1782111457.98
0.0928014360897 0.0086400978197 -0.244453474417 1782111458.01
 0.114823613231 0.0321092704169 -0.258229180367 1782111458.04
 0.131801942897 0.0606565016363 -0.264364350102 1782111458.05
 0.141948926379 0.0909791136408 -0.263442137958 1782111458.07
  0.14383516478   0.11935865124 -0.256688790262 1782111458.08
 0.136508679507  0.142185698042 -0.245619541407 1782111458.11
 0.119630335506  0.156504976902 -0.231648264588 1782111458.13
0.0936080032745  0.160493827757 -0.215772307769 1782111458.15
0.0596968491094  0.153786479742 -0.198424661999 1782111458.17
0.0200258532758  0.137574055714  -0.17953611849 1782111458.18
-0.0224851078096   0.114445863347  -0.158783784979 1782111458.21
-0.0643370451091  0.0879855497211  -0.135940423734 1782111458.23
 -0.10178661047  0.062185537654 -0.111203738174 1782111458.25
 -0.131269173705   0.040782336456 -0.0853902714036 1782111458.27
   -0.1498503936   0.026633622863 -0.0599242740352 1782111458.28
-0.155631418831 0.0212508745801 -0.036621098595 1782111458.31
 -0.148032654563  0.0245709874091 -0.0173315591281 1782111458.33
  -0.127897392992   0.0350042651847 -0.00355456462409 1782111458.35
-0.0973875770795  0.0497447093703 0.00387161236872 1782111458.37
-0.0596837146188  0.0652819787266 0.00492048898168 1782111458.38
 -0.0185406455977   0.0780210405745 0.000343261296131 1782111458.41
   0.022219211337   0.0849002907303 -0.00852551211943 1782111458.44
 0.0591811293802  0.0839028034114 -0.0200583732193 1782111458.45
 0.0896965965421  0.0743761679465 -0.0326407130976 1782111458.47
  0.112068041042  0.0571099270748 -0.0449174904798 1782111458.48
  0.125543912099  0.0341609119184 -0.0559316800921 1782111458.51
  0.130152569413 0.00846005863081 -0.0651401936172 1782111458.53
  0.126439731695 -0.0167269408247 -0.0723278675829 1782111458.55
  0.115192911505 -0.0383854899056 -0.0774656751457 1782111458.57
 0.0972319400655 -0.0542749185603 -0.0805692935145 1782111458.58
 0.0733182443286 -0.0632897198889 -0.0816066189109 1782111458.61
 0.0441944781217 -0.0655918044367 -0.0804809407417 1782111458.63
 0.0107226679682 -0.0624928096748 -0.0770878864671 1782111458.65
-0.0259435496557  -0.056118002481 -0.0714185577497 1782111458.67
-0.0642288477628 -0.0489298836953 -0.0636665363989 1782111458.68
  -0.10211236392 -0.0432182364294 -0.0542960870189 1782111458.71
 -0.137242488306 -0.0406659939873 -0.0440410920123 1782111458.73
 -0.167181973814 -0.0420761775944 -0.0338238329178 1782111458.75
 -0.189737911855   -0.04730152196 -0.0246040424213 1782111458.77
 -0.203307760962 -0.0553680145479 -0.0171874150401 1782111458.78
   -0.2071678755 -0.0647402331832 -0.0120359380917 1782111458.81
  -0.201643858648  -0.0736507242274 -0.00912721994907 1782111458.83
  -0.188127454989  -0.0804125896474 -0.00790394498622 1782111458.85
   -0.16893573501   -0.083652328147 -0.00733696821621 1782111458.87
 -0.147038088131 -0.0824316531718 -0.0060993174049 1782111458.88
  -0.125699098295  -0.0762621480687 -0.00282034960615 1782111458.9
 -0.108096692406 -0.0650449185882 0.00363183353782 1782111458.93
-0.0969737892176 -0.0489817071026  0.0138989618575 1782111458.95
-0.0943698625943 -0.0285019572096  0.0279628817866 1782111458.97
  -0.101460420843 -0.00423451406985   0.0450875388075 1782111458.98
-0.118512108769 0.0229712107581 0.0638775418356 1782111459
-0.144942983348 0.0519942994832 0.0824370914377 1782111459.03
-0.179464209491 0.0813990849917 0.0986010987591 1782111459.05
-0.220272282206   0.10944246246  0.110207458605 1782111459.07
-0.265259863457  0.134165451887  0.115381371999 1782111459.08
-0.312217218203  0.153581251008  0.112804114643 1782111459.1
-0.359003233516  0.165944117308  0.101937144662 1782111459.13
 -0.40367345729  0.170056393095 0.0831696194541 1782111459.15
-0.444561369234  0.165551555246 0.0578578811577 1782111459.17
-0.480317270052  0.153084365673 0.0282336271776 1782111459.18
 -0.509915601059   0.134367911582 -0.0028255982725 1782111459.2
 -0.532645039358   0.112021615858 -0.0321473221266 1782111459.23
 -0.548095861227  0.0892305315457 -0.0566974915488 1782111459.25
 -0.556156132183  0.0692570994475 -0.0740399423377 1782111459.27
 -0.557022683387   0.054882700139 -0.0827567872573 1782111459.28
 -0.551224632051  0.0478790669816 -0.0827643807487 1782111459.3
-0.539646901385  0.048613192985 -0.075466955759 1782111459.33
 -0.523531186766  0.0558720754168 -0.0637042171087 1782111459.35
 -0.504426547609  0.0669579946516 -0.0514703997426 1782111459.37
 -0.484065708122   0.078057294819 -0.0434111419529 1782111459.38
-0.464157764484 0.0848348944401 -0.044140032254 1782111459.4
 -0.446110734888   0.083163009873 -0.0574548542984 1782111459.43
 -0.430722710969  0.0698643821018 -0.0855671244677 1782111459.45
 -0.41790184511 0.0433429139183 -0.128478360816 1782111459.47
 -0.406486968396 0.00398937261383  -0.183634132295 1782111459.48
 -0.394237095241 -0.0457156285277  -0.245957433155 1782111459.5
-0.378036280912 -0.101430281017 -0.308307664532 1782111459.53
-0.354321261333 -0.157485725056  -0.36233901669 1782111459.55
-0.319689745671 -0.207648030486 -0.399656319011 1782111459.57
-0.271598735822  -0.24599173148 -0.413102913336 1782111459.58
-0.209027844273 -0.267749737146  -0.39797645233 1782111459.6
-0.132972577514 -0.270008184186 -0.352962145532 1782111459.63
-0.0466515775714  -0.252139921268  -0.280601042151 1782111459.65
0.0446422025595  -0.21591201284 -0.187171482966 1782111459.67
  0.134051798384  -0.165253538329 -0.0819493916689 1782111459.68
 0.213963250153 -0.105721400597 0.0240818161209 1782111459.7
  0.276984124098 -0.0437457908763   0.119892528162 1782111459.73
0.316931498247 0.014232331544 0.196167930464 1782111459.75
 0.329663058291 0.0626048264351  0.246843601952 1782111459.77
 0.313614499402 0.0972969382294  0.270096834878 1782111459.78
0.269963218066  0.11622163988 0.268552802955 1782111459.8
0.202409407914 0.119422920812 0.248609628166 1782111459.83
0.116635190681  0.10889496721 0.218973023591 1782111459.85
0.0195551821193 0.0881204397615  0.188677432109 1782111459.87
-0.081502663329 0.0614195045589  0.165008140333 1782111459.88
-0.179552359468 0.0332304235911  0.151787439588 1782111459.9
 -0.268539509487 0.00744592876418   0.148428055753 1782111459.92
 -0.343711631375 -0.0130920131913   0.149997065783 1782111459.95
 -0.401767880615 -0.0268760090735   0.148308302557 1782111459.97
  -0.44083122729 -0.0337792872083   0.133823746119 1782111459.98
 -0.460312879618 -0.0348901672308   0.097952079391 1782111460
   -0.4607422953 -0.0321907175135  0.0352330587124 1782111460.02
 -0.443617198707 -0.0281481233652 -0.0550845515887 1782111460.05
 -0.411294620905 -0.0252848817606  -0.168428833667 1782111460.07
 -0.366909175797 -0.0257821490536  -0.295392711229 1782111460.08
 -0.314281359437 -0.0311562238313  -0.423212787943 1782111460.1
-0.257773576407 -0.042036019683 -0.537909299876 1782111460.12
 -0.202063911187 -0.0580606734137  -0.626624024673 1782111460.15
-0.151830751032 -0.077909234201 -0.679675174335 1782111460.17
 -0.111367172416 -0.0994653189087  -0.691944501683 1782111460.18
-0.0841661558878  -0.120105815785  -0.663388971043 1782111460.2
-0.0725322684687  -0.137083632245  -0.598674064607 1782111460.22
-0.0772803444695  -0.147953221457  -0.506102922672 1782111460.25
-0.097576122609 -0.150970730675 -0.396125828364 1782111460.27
-0.130958342031 -0.145395666722 -0.279744515891 1782111460.28
-0.173558458453 -0.131632867913 -0.167086092146 1782111460.3
 -0.220506022768  -0.111181723766 -0.0663373101399 1782111460.32
 -0.266478748472 -0.0863977917987   0.016869991364 1782111460.35
 -0.306330928546 -0.0601107423145  0.0796237327171 1782111460.37
 -0.335717042415 -0.0351722819042   0.121517707176 1782111460.38
 -0.351623227814 -0.0140210384902   0.144170379601 1782111460.4
 -0.352729497425 0.00165507379981   0.150600142474 1782111460.42
-0.339548670473 0.0111032011079  0.144571331505 1782111460.45
-0.314320011489 0.0145171408236  0.130002562788 1782111460.47
-0.280671633916  0.012894672213  0.110500777521 1782111460.48
 -0.243100934272 0.00778861210364  0.0890558998295 1782111460.5
 -0.206351668052 0.00101388574297  0.0679045030013 1782111460.52
  -0.174784532407 -0.00562950510372   0.0485470993421 1782111460.55
 -0.151840739031 -0.0105736094724   0.031883512158 1782111460.57
 -0.139682896248 -0.0126188901982   0.018416111787 1782111460.58
 -0.139066077777 -0.0109923352005 0.00846397253558 1782111460.6
 -0.149449299181 -0.0053473122985 0.00233419060234 1782111460.62
   -0.16931121391  0.00426704084757 0.000409938718272 1782111460.65
 -0.196592212122  0.0174416807201 0.00313619871175 1782111460.67
-0.229156719433 0.0334342655637 0.0109092442088 1782111460.68
-0.265161463479 0.0511867037531 0.0238995355059 1782111460.7
-0.303231945604 0.0693479582955 0.0418549367568 1782111460.72
-0.342389974086 0.0863257809029 0.0639390118008 1782111460.75
-0.381734277929  0.100392287544 0.0886565453369 1782111460.77
-0.419943258754  0.109859362785  0.113905663329 1782111460.78
-0.454729255385  0.113321092789  0.137173902426 1782111460.8
-0.482411150432  0.109935403111  0.155866007893 1782111460.82
-0.497773045375 0.0996926116745  0.167717778574 1782111460.85
-0.494334661145 0.0836029022727  0.171219592078 1782111460.87
-0.465078495572 0.0637347255747  0.165954532147 1782111460.88
 -0.40357491355 0.0430551642372  0.152758400683 1782111460.9
 -0.30534186521 0.0250597659336  0.133637319076 1782111460.92
-0.169195080458 0.0132266937895  0.111430452888 1782111460.95
0.00169214127038  0.0103778385422  0.0892692554386 1782111460.97
 0.199280505069 0.0180656585153  0.069942922464 1782111460.99
 0.410890434529 0.0361181109516 0.0553142505133 1782111461
 0.620219320575 0.0624585643823 0.0459284751296 1782111461.02
 0.809058415923  0.093272968712 0.0409181488938 1782111461.05
 0.959475817667   0.12352988732 0.0382391197541 1782111461.07
  1.05612994069  0.147783536547 0.0351934676522 1782111461.09
  1.08833888036  0.161122778121 0.0291245728088 1782111461.1
 1.05156344384  0.16008711902 0.018124346223 1782111461.12
   0.94805766639   0.143366532304 0.00158388101187 1782111461.15
  0.786580274032    0.11213864549 -0.0195508226873 1782111461.17
 0.581217026141 0.0699670029773 -0.042892621088 1782111461.19
  0.349508854955  0.0222712245124 -0.0650873253282 1782111461.2
   0.11018891572 -0.0245363243744 -0.0825538679696 1782111461.22
   -0.1191150878 -0.0640903838399 -0.0923293072564 1782111461.25
 -0.323866576444 -0.0911028979229 -0.0928247957716 1782111461.27
 -0.494015963233  -0.102204211487 -0.0843094671365 1782111461.29
 -0.624642427891 -0.0964556222895 -0.0689933412238 1782111461.3
 -0.715812094271 -0.0754555647474 -0.0506677154369 1782111461.32
 -0.771752161167 -0.0430338559493  -0.033963425138 1782111461.34
  -0.799540063569 -0.00459804453393  -0.0233802302459 1782111461.37
 -0.807562079646  0.0337480340213 -0.0223013360702 1782111461.39
 -0.804003458073  0.0661593321923 -0.0322189633429 1782111461.4
 -0.795597666525  0.0879174754899 -0.0523543045542 1782111461.42
 -0.786796623729  0.0960727376246 -0.0797659941896 1782111461.44
-0.779440231984 0.0897682158544 -0.109926031712 1782111461.47
-0.772916734458 0.0702161552719 -0.137630060541 1782111461.49
-0.764729447867  0.040359710686 -0.158029957094 1782111461.5
 -0.751331443126 0.00430482322986  -0.167552391966 1782111461.52
 -0.729063805694 -0.0333631096571  -0.164503360585 1782111461.54
-0.695035453386 -0.068257716693  -0.14924396966 1782111461.57
  -0.64780878514 -0.0967617883565  -0.123931834085 1782111461.59
 -0.587798706178  -0.116417372979 -0.0919250047805 1782111461.6
 -0.517344727809  -0.126102936514 -0.0570152132422 1782111461.62
 -0.440468569067  -0.126002646048 -0.0226792323786 1782111461.64
 -0.362375369879  -0.117403907795 0.00848968564163 1782111461.67
-0.288789446889 -0.102379804392  0.035071937498 1782111461.69
 -0.225232360685 -0.0834216382407  0.0568146174011 1782111461.7
 -0.176351512179 -0.0630838072645  0.0743819426695 1782111461.72
 -0.145393076017 -0.0436905562882  0.0889657773156 1782111461.74
 -0.133886439089 -0.0271348809184   0.101873356583 1782111461.77
-0.141571976683 -0.014778129219  0.114191499571 1782111461.79
 -0.166564742478 -0.0074389886018    0.12658715742 1782111461.8
 -0.205709570818 -0.0054460729638    0.13925812096 1782111461.82
  -0.255054838862 -0.00872126914721    0.152009227567 1782111461.84
 -0.310358378512 -0.0168619751725   0.164407225589 1782111461.87
  -0.36754276719 -0.0291988942071   0.175962972498 1782111461.89
 -0.423037575151 -0.0448205353833   0.186297861855 1782111461.9
 -0.473978014401 -0.0625728539023   0.195264267652 1782111461.92
 -0.518264527483 -0.0810577666867   0.203000543085 1782111461.94
 -0.554517041941 -0.0986622718566   0.209907268102 1782111461.97
-0.581973890153 -0.113646692011  0.216535527333 1782111461.99
-0.600386017979 -0.124305655117  0.223385336747 1782111462.01
-0.609943920432 -0.129192440905  0.230627422629 1782111462.02
-0.611252828047  -0.12737301119  0.237784979193 1782111462.04
-0.605347442475 -0.118658039603  0.243439293725 1782111462.07
-0.593717190206 -0.103755482197  0.245045572347 1782111462.09
 -0.578301482704 -0.0842949983228   0.238952516998 1782111462.1
 -0.561414779258 -0.0626969671773   0.220702246033 1782111462.12
 -0.545573729746 -0.0418877606022    0.18564197048 1782111462.14
 -0.533221056996 -0.0248927290197   0.129809184077 1782111462.17
 -0.526368681553 -0.0143631087707  0.0509707061447 1782111462.19
 -0.526210145313 -0.0121088276021 -0.0503772207377 1782111462.21
 -0.532773476448 -0.0187141335778  -0.170282638928 1782111462.22
 -0.544694491325 -0.0333066743812  -0.301112271869 1782111462.24
 -0.55918286145 -0.053533489619 -0.431986971372 1782111462.27
 -0.572227615573 -0.0757706004932  -0.549919926041 1782111462.29
 -0.579047585576 -0.0955591314801  -0.641550210416 1782111462.31
 -0.57474233426 -0.108224490566  -0.69521724429 1782111462.32
-0.555050337221 -0.109601628952   -0.7030126494 1782111462.34
 -0.517085172868 -0.0967645958141  -0.662405078507 1782111462.37
 -0.459907890825 -0.0686473741961  -0.577077888168 1782111462.39
 -0.384811621233 -0.0264483276239  -0.456747703901 1782111462.41
-0.295243490676 0.0262669477246 -0.315922555985 1782111462.42
-0.196361466486 0.0838119517545  -0.17177255871 1782111462.44
-0.0943044173703    0.13897370622 -0.0414757818683 1782111462.47
0.00467788068335    0.18390023575  0.0604787365877 1782111462.49
0.0950517854161  0.211174065165  0.124530207241 1782111462.5
0.172610037864 0.214923295538 0.147414316569 1782111462.52
0.234747406281 0.191800202446 0.132419904657 1782111462.54
 0.280374177129   0.14166300835 0.0885112149442 1782111462.57
 0.309540104652 0.0678324994337  0.028508079428 1782111462.59
  0.322921946047 -0.0231422711897 -0.0333134656883 1782111462.6
   0.32136288453  -0.122196392393 -0.0837425464873 1782111462.62
 0.305628692362 -0.218847334315 -0.112813200467 1782111462.64
  0.27646770522 -0.302522051358 -0.115260049742 1782111462.67
  0.234951238742  -0.363918449495 -0.0910190255037 1782111462.69
  0.182961163429  -0.396202514364 -0.0447350088945 1782111462.7
 0.123616834477 -0.395870670448 0.0155656239228 1782111462.72
0.0614204303106 -0.363160898318 0.0803197283117 1782111462.74
0.00195721652046  -0.301965272383   0.140381395793 1782111462.77
-0.048895247364 -0.219269063786   0.18867603388 1782111462.79
-0.086145726387 -0.124206131213  0.221233074422 1782111462.8
 -0.107011375157 -0.0268678382748   0.237432266711 1782111462.82
-0.112047521679 0.0629723717849  0.239486682663 1782111462.84
-0.105740308622  0.137054977413  0.231360290167 1782111462.87
-0.0963031098094   0.189604495455   0.217436891529 1782111462.89
-0.0945853187867   0.217956650461   0.201292292069 1782111462.91
-0.112214214334  0.222761801664  0.184867009004 1782111462.92
-0.159294074442  0.207726477404   0.16821099284 1782111462.94
-0.242126933092  0.178907277801  0.149811573851 1782111462.97
-0.361455467668  0.143635826992  0.127365351509 1782111462.99
-0.511645424398  0.109224835652 0.0987525426202 1782111463.01
-0.681038873577 0.0816684146885 0.0629408168235 1782111463.02
-0.853464179311 0.0645821988888 0.0205863020685 1782111463.04
  -1.01064319219  0.0586097635872 -0.0258057865553 1782111463.07
  -1.13504894162  0.0614425278388 -0.0721800193112 1782111463.09
 -1.21267920354 0.0684716409598 -0.113598921374 1782111463.11
 -1.23523762731 0.0739425845918 -0.145115127064 1782111463.12
 -1.20134236538 0.0723577004921 -0.162652920227 1782111463.14
 -1.11657926332 0.0598066651607 -0.163719238893 1782111463.17
-0.992438572706 0.0349210419754 -0.147812245572 1782111463.19
   -0.844375788291 -0.000757326962126    -0.116463219442 1782111463.21
 -0.689380788186 -0.0430600465263 -0.0729215170434 1782111463.22
 -0.543500669747 -0.0860394094892 -0.0215606558386 1782111463.24
-0.419733890777 -0.123166394647 0.0328647515521 1782111463.27
-0.326608705925 -0.148602074597 0.0859558082762 1782111463.29
-0.267605192773  -0.15827073994  0.134250725008 1782111463.31
-0.241413326061 -0.150530372906  0.175539886492 1782111463.33
-0.242874366936 -0.126341994638  0.208866858689 1782111463.34
 -0.264354969315 -0.0889542623296   0.234242117548 1782111463.37
  -0.29726509854 -0.0432159922586   0.252165016917 1782111463.39
 -0.333450540831 0.00531176320396   0.263095867958 1782111463.41
-0.366255851256 0.0512578097566  0.267031888532 1782111463.43
-0.391144879702 0.0901961675715  0.263313788138 1782111463.44
-0.405862593911  0.119146901772   0.25072898212 1782111463.47
-0.410205131623  0.136779664351  0.227897228187 1782111463.49
-0.405521386532  0.143338733243  0.193845336503 1782111463.51
-0.394092443116   0.14035450571  0.148620493888 1782111463.53
-0.378525844747  0.130230556027 0.0937718578757 1782111463.54
-0.361267678593  0.115796666682  0.032552568479 1782111463.57
 -0.344288611392  0.0999010404599 -0.0302464121458 1782111463.59
  -0.32895279081  0.0850871257676 -0.0888371072527 1782111463.61
 -0.31604082482 0.0733713542955 -0.137269796851 1782111463.63
-0.305875312575 0.0661155780296 -0.170410188969 1782111463.64
-0.298490530462 0.0639766651637  -0.18486385496 1782111463.67
-0.293794361536 0.0669155840029 -0.179651906257 1782111463.69
-0.291685947795 0.0742552966987 -0.156483570486 1782111463.71
-0.292111771902 0.0847847515864 -0.119549236633 1782111463.73
  -0.29506126692  0.0969096848805 -0.0748561988073 1782111463.75
-0.300517109876  0.108847112102 -0.029227220208 1782111463.77
-0.308383205643  0.118850229231 0.0108439188566 1782111463.79
-0.318414811537  0.125437877625 0.0402544135834 1782111463.81
-0.330171429158  0.127593075765 0.0560667885044 1782111463.83
-0.343005936347  0.124893138267  0.057857554628 1782111463.85
-0.356095088306  0.117542042587 0.0475982577927 1782111463.87
-0.368508761862  0.106293139536  0.029126692317 1782111463.89
 -0.379309168278  0.0922730490392 0.00734415263719 1782111463.91
 -0.387666933519  0.0767397163907 -0.0126861343086 1782111463.93
 -0.392978237944  0.0608231641853 -0.0265687378723 1782111463.95
 -0.394966037637  0.0453023042463 -0.0312038673733 1782111463.97
 -0.393749047412  0.0304640570489 -0.0251435170344 1782111463.99
   -0.38986508403   0.0160738133852 -0.00866684169379 1782111464.01
 -0.384240645601 0.00146314277912  0.0163881346121 1782111464.03
 -0.378105696874 -0.0142831100393  0.0469744741268 1782111464.05
 -0.372860458215 -0.0320775719921  0.0793002792731 1782111464.07
 -0.369908325681 -0.0525675896471   0.109345012874 1782111464.09
 -0.370474831802 -0.0759096907369   0.133375789066 1782111464.11
-0.375435983701 -0.101625196811  0.148417785628 1782111464.13
-0.385179711687 -0.128567036295  0.152635070569 1782111464.15
-0.399521005539 -0.155008935318  0.145578263341 1782111464.17
-0.417684527209 -0.178846710439  0.128258833087 1782111464.19
-0.438358811557 -0.197880415726  0.103022345088 1782111464.21
-0.459815317604 -0.210129524562 0.0732179816381 1782111464.23
 -0.48007593027 -0.214125247138 0.0426973091082 1782111464.25
-0.497106260596   -0.2091272855 0.0152137232762 1782111464.27
  -0.509010476108   -0.195226865909 -0.00617617010098 1782111464.29
 -0.514206191999  -0.173320641562 -0.0195975184977 1782111464.31
   -0.5115637431  -0.144965548964 -0.0246314786143 1782111464.33
 -0.500501026254  -0.112146790833 -0.0223201186318 1782111464.35
 -0.481031369536 -0.0770049290402 -0.0148972570141 1782111464.37
  -0.45376646803 -0.0415714526182 -0.0052974220075 1782111464.39
 -0.419878930339 -0.0075560988925 0.00345844455549 1782111464.41
 -0.381029677201  0.0237832850594 0.00887654214858 1782111464.43
-0.339265170716 0.0516731514244 0.0094798776769 1782111464.45
 -0.296889355193  0.0757603548447 0.00507689939788 1782111464.47
  -0.256316118831   0.0959700302234 -0.00324300651349 1782111464.49
 -0.219910106201   0.112318807975 -0.0133842661807 1782111464.51
 -0.189825998737   0.124728580511 -0.0227325156086 1782111464.53
   -0.1678577252   0.132890061897 -0.0287528558238 1782111464.55
 -0.155308677254   0.136218595745 -0.0295725119315 1782111464.57
 -0.152892013332   0.133926380656 -0.0244223430522 1782111464.59
 -0.160667409018   0.125208228936 -0.0138393284577 1782111464.61
  -0.178018129722    0.109507935162 0.000417976232001 1782111464.63
  -0.2036705555   0.08680685695 0.0157268424399 1782111464.65
-0.235757130181 0.0578628174159  0.029155306682 1782111464.67
-0.271922569533 0.0243309281346 0.0380932573783 1782111464.69
 -0.309471404226 -0.0112810007698  0.0408189415771 1782111464.71
 -0.345552099294 -0.0458355999626  0.0368734587928 1782111464.73
-0.377368941938 -0.075941652415 0.0271595742126 1782111464.75
 -0.402407835824 -0.0984217286362  0.0137449614544 1782111464.77
  -0.418656716085   -0.110788751666 -0.00058227583767 1782111464.79
  -0.42479669555  -0.111643205005 -0.0129031551889 1782111464.81
 -0.420338034154  -0.100915374162 -0.0207708410198 1782111464.83
 -0.405677510575 -0.0799048208558 -0.0226981582966 1782111464.85
 -0.382061929043 -0.0511063006718 -0.0184323520365 1782111464.87
  -0.351455762299  -0.0178499211093 -0.00897127170676 1782111464.89
 -0.316326755413  0.0161839836617 0.00366743790742 1782111464.91
-0.279377859369 0.0474937506479 0.0168631804642 1782111464.93
-0.243263416071 0.0732413899188 0.0279033105822 1782111464.95
-0.210329762448 0.0916153920157 0.0344875707697 1782111464.96
 -0.18241498653  0.102016059995 0.0351372142422 1782111464.99
-0.160730840082  0.105040333333 0.0294453529219 1782111465.01
-0.145834433193  0.102278051638 0.0181364199312 1782111465.02
 -0.137681651504  0.0959621860284 0.00293352261951 1782111465.05
 -0.135741638716  0.0885361046191 -0.0137409228226 1782111465.07
  -0.13914475499  0.0822089801724 -0.0291847814528 1782111465.09
 -0.146836091762   0.078566959558 -0.0408936739563 1782111465.11
 -0.157711889356  0.0782958325445 -0.0470232425135 1782111465.13
 -0.170724645544  0.0810541391229 -0.0467587512246 1782111465.15
  -0.18495157562  0.0855164364704 -0.0405195832059 1782111465.17
-0.199628332485 0.0895859939331 -0.029944000044 1782111465.19
 -0.214154605929  0.0907548673231 -0.0176316381935 1782111465.21
  -0.228080468957   0.0865676146406 -0.00666524495741 1782111465.23
  -0.241082705739   0.0751245010384 1.78690914413e-05 1782111465.25
  -0.252939435251   0.0555443762996 0.000290850478493 1782111465.27
  -0.263509474266   0.0283014943417 -0.00660077793413 1782111465.29
  -0.272720187908 -0.00464067766775  -0.0197178088401 1782111465.31
 -0.280564259734  -0.039949605973 -0.0364489468783 1782111465.33
 -0.287102435961 -0.0733072818954 -0.0529116528738 1782111465.35
  -0.29246675261  -0.100016415389 -0.0646833759575 1782111465.37
 -0.296857931189  -0.115739390735 -0.0677291094236 1782111465.39
 -0.300532044935   -0.11724401241 -0.0593287580948 1782111465.41
 -0.303775159515  -0.103016765849 -0.0387880211859 1782111465.43
  -0.306869738145  -0.0736194075191 -0.00774993050199 1782111465.45
 -0.310061764887 -0.0317073304834  0.0299924232106 1782111465.47
-0.313540772263 0.0183093051272 0.0691659295539 1782111465.49
-0.317444198781 0.0709110207929  0.104035345755 1782111465.51
-0.321891638813  0.120308490744  0.129544010757 1782111465.53
-0.327044395779  0.161322935603  0.142316909945 1782111465.55
-0.333174265758   0.19014456052  0.141295920519 1782111465.57
-0.340716855917  0.204830261175  0.127865456939 1782111465.59
-0.350282766834  0.205455444243  0.105449133719 1782111465.6
-0.362606515491  0.193906445315 0.0786819125633 1782111465.63
 -0.37842740346  0.173373429562 0.0523565661584 1782111465.65
-0.398315417987  0.147662030433 0.0303872494646 1782111465.67
-0.422473726642  0.120472481454   0.01501979538 1782111465.69
 -0.45056189952 0.0947919004653 0.0064551389766 1782111465.7
 -0.481586244381  0.0725110258288 0.00295625227367 1782111465.72
 -0.513893770609  0.0543203988884 0.00140231438117 1782111465.75
  -0.545285975113   0.0398765663649 -0.00184140923723 1782111465.77
 -0.573242683846  0.0281713100252 -0.0099353111111 1782111465.79
  -0.59522121044  0.0179986290651 -0.0246807312411 1782111465.8
 -0.608978717298 0.00840212291886  -0.045939609133 1782111465.82
  -0.612860660231 -0.00100022549369  -0.0714958684522 1782111465.85
  -0.606007006587 -0.00988164392216  -0.0974015406003 1782111465.87
 -0.588447873571 -0.0172833433166  -0.118744098421 1782111465.89
 -0.561085111796 -0.0218748231906  -0.130675946143 1782111465.9
 -0.525578498111 -0.0223297517074  -0.129484902382 1782111465.92
 -0.484168508191 -0.0177248921308  -0.113471325788 1782111465.95
  -0.439469910945 -0.00786531662007  -0.0834372284204 1782111465.96
 -0.394263679985 0.00654393975856 -0.0426764009054 1782111465.98
 -0.351303555063    0.02392495486 0.00353721160041 1782111466
-0.313142897915 0.0420527413591 0.0488579387689 1782111466.02
-0.281980815279 0.0584342454455 0.0869859439538 1782111466.05
-0.259525437286 0.0707596430886  0.112766402499 1782111466.07
-0.246876274992 0.0773286785126  0.123053080144 1782111466.09
-0.244434418823  0.077361407106  0.117174928331 1782111466.11
-0.251855445872 0.0711303772111 0.0969313860576 1782111466.12
-0.268061769155 0.0598925186085 0.0661404476909 1782111466.15
-0.291326725304 0.0456430104332 0.0298521987612 1782111466.17
  -0.319432213736   0.0307493508964 -0.00659861794265 1782111466.18
  -0.34988767529  0.0175439231626 -0.0385060957045 1782111466.2
 -0.380184562167 0.00795451557468 -0.0624989354293 1782111466.22
 -0.408051309218 0.00323640402785 -0.0769217192638 1782111466.24
  -0.43167206224  0.0038423409536 -0.0818531820516 1782111466.27
 -0.449838644709 0.00943554939607 -0.0788036200497 1782111466.29
 -0.462017541719  0.0190229380456 -0.0701980670188 1782111466.3
 -0.468328555169  0.0311669044934 -0.0587862523899 1782111466.32
 -0.469445665584  0.0442271821859 -0.0471182500057 1782111466.35
-0.466441046036 0.0565889038341 -0.037188828443 1782111466.37
 -0.460599033156  0.0668462215812 -0.0302952104809 1782111466.39
  -0.45322812282  0.0739274885936 -0.0270894770964 1782111466.4
 -0.445496247509  0.0771630033928 -0.0277563145069 1782111466.42
 -0.438308591831   0.076305811326 -0.0322226462618 1782111466.44
 -0.432239215361  0.0715185719437 -0.0403127999196 1782111466.47
-0.427519164107  0.063336166561 -0.051796604928 1782111466.49
-0.424075826004  0.052607687622 -0.066325995356 1782111466.5
 -0.421611894691  0.0404166210649 -0.0833023513666 1782111466.52
-0.419707940314 0.0279774347462  -0.10174697274 1782111466.53
-0.417930569174 0.0165112073892 -0.120251167962 1782111466.57
 -0.415928744449 0.00711051846421   -0.13705924368 1782111466.58
  -0.413504027121 0.000611025584797   -0.150294639733 1782111466.6
  -0.410645706315 -0.00250940527499    -0.15829020483 1782111466.61
  -0.407527926333 -0.00218513506268   -0.159943630274 1782111466.63
 -0.404471849163 0.00124115067215  -0.155001069008 1782111466.67
 -0.401880944011 0.00708234870372  -0.144182324302 1782111466.68
 -0.40016147448 0.0144211652293 -0.129097883886 1782111466.7
 -0.39964298483 0.0222547756768 -0.111961784956 1782111466.71
-0.400514543717 0.0296434241499  -0.09515967837 1782111466.73
